4405	4405	4463	4463	4463	4522	4522	4522	4522	4522	4463	4463	4463	4522	4582	4645	4645	4645	4645	4708	4645	4645	4582	4582	4582	4522	4522	4463	4463	4405	4405	4405	4405	4405	4349	4349	4295	4241	4241	4241	4190	4190	4190	4190	4190	4190	4139	4139	4041	4041	4041	3994	3994	3994	3994	3994	3994	3859	3816	3816	3816	3816	3816	3774	3774	3774	3732	3692	3692	3692	3653	3653	3653	3614	3614	3576	3576	2398	2398	2398	2398	2398	2381	2365	2365	2349	2349	2333	2333	2317	2301	2286	2286	2271	2256	2256	2241	2241	2226	2226	2212	2198	2198	2184	2170	2170	2170	2143	2143	2129	2116	2103	2103	2103	2090	2090	2078	2065	2065	2053	
4405	4405	4463	4463	4463	4522	4522	4522	4582	4582	4522	4522	4522	4582	4582	4645	4645	4645	4708	4708	4645	4645	4582	4522	4522	4522	4522	4463	4463	4405	4405	4405	4405	4405	4349	4295	4295	4241	4241	4241	4241	4241	4190	4190	4190	4190	4139	4089	4041	4041	4041	3994	3994	3948	3948	3994	3994	3859	3816	3816	3816	3816	3816	3774	3774	3774	3732	3653	3653	3653	3692	3653	3653	3614	3614	3614	3576	2398	2398	2398	2415	2398	2381	2365	2349	2349	2349	2333	2333	2317	2301	2286	2286	2271	2271	2256	2241	2241	2226	2226	2212	2198	2184	2184	2170	2170	2170	2143	2143	2129	2116	2116	2103	2103	2103	2090	2078	2065	2065	2053	
4405	4405	4463	4463	4522	4522	4522	4522	4582	4582	4582	4582	4582	4582	4582	4645	4645	4645	4708	4708	4645	4645	4582	4522	4463	4463	4463	4463	4463	4463	4405	4405	4349	4349	4349	4295	4295	4241	4241	4241	4241	4241	4190	4190	4190	4139	4139	4089	4041	4041	4041	3994	3994	3948	3948	3994	3948	3948	3859	3816	3816	3816	3816	3816	3774	3774	3692	3653	3653	3653	3653	3653	3653	3653	3614	3614	3614	2398	2398	2398	2398	2381	2381	2365	2349	2349	2333	2333	2333	2317	2301	2301	2286	2271	2271	2256	2241	2241	2226	2226	2212	2198	2184	2170	2170	2170	2170	2156	2143	2129	2116	2116	2103	2103	2103	2090	2078	2065	2053	2053	
4405	4405	4463	4463	4463	4463	4522	4522	4582	4582	4582	4582	4582	4582	4582	4582	4645	4645	4645	4708	4645	4645	4582	4522	4463	4463	4463	4463	4463	4463	4463	4405	4295	4295	4349	4295	4295	4241	4241	4241	4241	4241	4190	4190	4190	4139	4139	4089	4041	4041	4041	3994	3994	3994	3994	3994	3948	3948	3859	3816	3816	3816	3816	3774	3774	3774	3692	3653	3653	3653	3653	3653	3653	3614	3614	3614	3614	2398	2398	2398	2398	2381	2381	2365	2349	2349	2333	2333	2333	2317	2301	2301	2286	2286	2271	2256	2241	2241	2226	2212	2212	2198	2184	2170	2170	2170	2170	2156	2143	2129	2116	2116	2103	2103	2103	2090	2078	2065	2053	2053	
4349	4405	4405	4405	4463	4463	4463	4522	4582	4645	4645	4582	4582	4582	4582	4582	4645	4645	4645	4708	4645	4582	4582	4522	4463	4463	4463	4463	4522	4463	4463	4405	4295	4295	4349	4295	4295	4241	4241	4241	4241	4241	4190	4190	4190	4139	4139	4089	4041	4041	4041	4041	4041	3994	3994	3948	3903	3903	3859	3816	3816	3816	3816	3774	3774	3732	3692	3692	3653	3653	3653	3653	3653	3614	3614	3614	3614	2415	2415	2398	2398	2398	2381	2365	2365	2349	2349	2333	2333	2317	2301	2301	2286	2286	2271	2256	2256	2241	2226	2212	2212	2198	2184	2170	2170	2170	2170	2143	2143	2129	2103	2103	2103	2103	2090	2090	2078	2065	2053	2053	
4349	4405	4405	4405	4405	4463	4463	4522	4522	4582	4582	4582	4582	4582	4582	4582	4645	4645	4645	4645	4645	4582	4582	4522	4463	4463	4463	4463	4522	4463	4463	4405	4295	4295	4349	4349	4295	4241	4241	4241	4241	4241	4190	4190	4190	4139	4139	4089	4089	4041	4041	4041	4041	3994	3948	3948	3903	3859	3816	3816	3816	3816	3774	3774	3732	3692	3692	3692	3653	3653	3653	3653	3653	3614	3614	3614	3614	2415	2415	2415	2415	2398	2398	2381	2365	2349	2349	2333	2333	2317	2301	2301	2301	2286	2271	2256	2256	2241	2226	2226	2212	2198	2198	2184	2170	2170	2170	2143	2143	2129	2103	2103	2103	2103	2090	2090	2078	2065	2053	2053	
4405	4405	4405	4405	4405	4463	4463	4522	4522	4522	4582	4582	4582	4582	4645	4645	4645	4645	4645	4645	4645	4645	4582	4522	4522	4522	4522	4463	4463	4463	4405	4405	4349	4349	4349	4349	4295	4241	4241	4241	4241	4241	4190	4190	4190	4139	4139	4089	4041	4041	4041	4041	3994	3994	3948	3948	3903	3859	3816	3816	3816	3816	3774	3774	3732	3692	3692	3692	3692	3692	3653	3653	3653	3614	3614	3614	3614	2432	2415	2415	2415	2398	2398	2398	2381	2349	2349	2333	2333	2317	2317	2301	2286	2271	2271	2256	2256	2241	2226	2226	2212	2198	2198	2184	2184	2170	2156	2143	2129	2116	2116	2103	2103	2090	2090	2090	2078	2065	2053	2053	
4405	4405	4405	4405	4405	4463	4463	4522	4522	4522	4522	4582	4645	4645	4645	4645	4645	4708	4645	4645	4645	4645	4582	4582	4522	4522	4522	4463	4463	4463	4405	4405	4349	4349	4295	4295	4295	4241	4241	4241	4241	4241	4190	4190	4190	4139	4089	4089	4041	4041	4041	3994	3994	3994	3948	3948	3903	3903	3816	3816	3816	3816	3774	3774	3732	3692	3692	3692	3692	3692	3692	3653	3653	3653	3614	3614	3614	2450	2415	2415	2415	2415	2398	2381	2365	2349	2349	2333	2333	2317	2301	2286	2286	2271	2271	2271	2256	2241	2226	2212	2212	2198	2184	2184	2184	2170	2156	2143	2129	2116	2116	2103	2103	2090	2090	2090	2078	2065	2053	2053	
4405	4405	4405	4405	4405	4463	4463	4522	4522	4522	4522	4582	4645	4645	4645	4645	4645	4645	4645	4645	4645	4645	4582	4582	4522	4522	4463	4463	4463	4405	4405	4405	4349	4349	4295	4295	4295	4241	4241	4241	4241	4241	4190	4190	4190	4139	4089	4089	4041	4041	4041	3994	3994	3994	3948	3948	3903	3903	3816	3816	3816	3816	3774	3774	3732	3692	3692	3692	3732	3692	3653	3653	3653	3653	3614	3614	3576	2432	2415	2415	2415	2398	2381	2365	2365	2349	2349	2333	2333	2317	2301	2286	2286	2271	2271	2271	2256	2226	2226	2212	2198	2184	2170	2170	2170	2170	2170	2143	2129	2116	2116	2103	2103	2090	2090	2090	2078	2065	2053	2053	
4405	4405	4463	4463	4463	4463	4522	4522	4522	4522	4522	4582	4645	4645	4645	4645	4645	4645	4645	4645	4645	4645	4645	4582	4522	4522	4463	4463	4463	4405	4405	4405	4349	4349	4295	4295	4295	4241	4241	4241	4241	4190	4190	4190	4190	4139	4089	4041	4041	4041	4041	3994	3994	3994	3948	3948	3948	3903	3816	3816	3774	3774	3774	3774	3732	3732	3732	3732	3692	3653	3653	3653	3653	3653	3614	3614	3576	2432	2415	2415	2398	2398	2381	2365	2365	2349	2349	2333	2333	2317	2301	2286	2286	2271	2271	2271	2256	2226	2226	2212	2198	2184	2170	2170	2170	2170	2170	2143	2143	2129	2116	2103	2103	2090	2090	2090	2078	2065	2053	2053	
4349	4405	4405	4463	4463	4522	4522	4522	4522	4522	4522	4522	4582	4645	4645	4645	4645	4645	4645	4645	4645	4645	4582	4582	4582	4522	4463	4463	4405	4405	4405	4349	4295	4295	4241	4241	4241	4241	4241	4241	4190	4190	4190	4139	4139	4089	4089	4041	4041	4041	3994	3994	3994	3994	3994	3948	3948	3903	3816	3816	3774	3774	3774	3774	3774	3732	3732	3732	3692	3653	3653	3653	3653	3653	3614	3576	3576	2415	2415	2398	2398	2381	2365	2349	2349	2349	2349	2333	2333	2317	2301	2286	2286	2271	2271	2271	2241	2226	2226	2212	2198	2184	2170	2170	2170	2170	2170	2143	2143	2129	2116	2103	2103	2090	2090	2090	2078	2065	2053	2040	
4349	4405	4405	4463	4463	4522	4522	4522	4522	4522	4522	4522	4522	4582	4582	4582	4582	4645	4645	4645	4645	4645	4582	4582	4582	4522	4463	4463	4405	4405	4405	4349	4295	4295	4241	4241	4241	4241	4241	4190	4190	4190	4139	4139	4139	4089	4089	4041	4041	4041	3994	3994	3994	3994	3994	3994	3948	3903	3816	3816	3816	3774	3774	3774	3774	3732	3732	3692	3692	3692	3653	3653	3653	3614	3614	3576	3576	2415	2415	2398	2398	2381	2365	2349	2349	2349	2333	2333	2333	2317	2301	2286	2286	2271	2256	2256	2241	2226	2226	2212	2198	2184	2184	2170	2170	2170	2156	2143	2129	2116	2103	2103	2090	2090	2090	2090	2078	2065	2053	2040	
4349	4349	4405	4463	4463	4463	4522	4522	4522	4522	4522	4522	4522	4522	4522	4582	4582	4582	4645	4645	4645	4645	4582	4582	4582	4522	4463	4463	4405	4405	4405	4405	4349	4295	4241	4241	4241	4241	4190	4190	4190	4190	4139	4139	4139	4139	4089	4041	4041	4041	3994	3994	3994	3994	3994	3948	3903	3903	3816	3816	3816	3774	3774	3774	3774	3732	3732	3692	3692	3692	3653	3653	3653	3614	3614	3576	3576	2432	2415	2398	2398	2381	2365	2349	2349	2349	2333	2333	2333	2317	2301	2286	2286	2271	2256	2256	2241	2226	2226	2212	2198	2198	2184	2184	2170	2170	2156	2143	2129	2116	2103	2103	2090	2090	2090	2090	2078	2065	2053	2053	
4349	4349	4405	4463	4463	4463	4522	4522	4522	4522	4522	4522	4522	4522	4522	4582	4582	4582	4645	4645	4645	4582	4582	4582	4522	4522	4463	4463	4405	4405	4405	4405	4349	4349	4295	4295	4241	4241	4190	4190	4190	4139	4139	4089	4089	4089	4041	4041	4041	4041	3994	3994	3994	3994	3994	3948	3903	3903	3816	3816	3816	3774	3774	3774	3774	3732	3732	3732	3692	3692	3653	3614	3614	3614	3614	3614	3576	3576	2432	2398	2381	2365	2349	2349	2349	2349	2349	2333	2333	2317	2301	2286	2286	2271	2256	2241	2226	2226	2226	2212	2212	2198	2198	2184	2170	2170	2156	2143	2116	2103	2103	2103	2090	2090	2090	2090	2078	2065	2053	2053	
4405	4405	4463	4463	4463	4463	4522	4522	4522	4522	4522	4522	4522	4522	4522	4582	4582	4582	4645	4645	4582	4582	4522	4522	4522	4522	4463	4463	4405	4405	4405	4405	4349	4349	4295	4295	4241	4241	4241	4190	4190	4139	4139	4089	4089	4089	4041	4041	4041	4041	3994	3994	3994	3994	3948	3948	3859	3859	3816	3816	3816	3816	3774	3774	3774	3774	3774	3732	3732	3692	3614	3614	3576	3576	3576	3614	3576	3576	2432	2398	2381	2365	2349	2349	2349	2349	2333	2333	2317	2317	2301	2286	2286	2271	2256	2241	2226	2226	2226	2212	2212	2198	2198	2184	2170	2170	2156	2143	2116	2103	2103	2103	2090	2090	2090	2090	2078	2065	2053	2053	
4349	4405	4463	4463	4463	4463	4463	4522	4522	4582	4522	4522	4522	4522	4522	4582	4582	4645	4645	4645	4582	4582	4522	4522	4522	4463	4463	4463	4463	4405	4405	4405	4405	4349	4295	4295	4241	4241	4241	4190	4190	4139	4139	4089	4089	805	805	4041	4041	4041	3994	3994	3994	798	798	3948	809	809	809	807	805	805	807	809	3774	3774	3774	3774	819	819	3614	3576	3539	3539	3576	3614	3614	3614	0	0	0	2381	2365	2365	2349	2333	2333	2333	2317	2301	2286	2286	2286	2271	2256	2256	2241	2226	2226	2212	2212	2198	2184	2170	2170	2170	2156	2143	2129	2103	2103	2103	2090	2090	2090	2078	2078	2065	2053	2053	
4349	4405	4463	4463	4463	4463	4463	4522	4522	4582	4522	4522	4522	4522	4522	4582	4645	4645	4645	4645	4645	4582	4522	4522	4522	4463	4463	4463	4463	4405	4405	4405	4405	4349	4349	4295	4241	4241	4241	4241	4190	4190	4139	807	803	802	802	4349	4405	4405	798	796	792	792	794	796	800	800	805	805	805	805	805	805	809	815	817	817	817	819	819	3576	3539	3539	3576	3614	3614	0	0	0	0	0	2365	2365	2349	2333	2333	2317	2317	2301	2286	2286	2286	2271	2271	2256	2241	2226	2212	2212	2212	2198	2184	2170	2170	2170	2156	2143	2129	2116	2116	2103	2103	2090	2090	2078	2065	2065	2053	2053	
4349	4405	4463	4463	4463	4463	4463	4522	4522	4582	4522	4522	4522	4522	4582	4582	4645	4645	4645	4645	4645	4582	4522	4522	4522	4463	4463	4463	4463	4463	4463	4405	4405	4349	4295	4295	4241	4241	4241	4241	4190	4190	800	800	800	800	792	790	790	790	790	794	790	790	790	789	789	792	792	802	802	805	805	805	809	815	817	817	817	817	817	817	0	0	0	0	0	0	0	0	0	0	0	0	2349	2333	2333	2317	2301	2301	2286	2286	2271	2271	2256	2256	2241	2226	2212	2212	2212	2198	2184	2184	2170	2170	2156	2143	2129	2116	2116	2103	2103	2090	2078	2078	2065	2065	2053	2053	
4349	4405	4405	4405	4463	4463	4463	4463	4522	4522	4522	4522	4522	4522	4582	4582	4582	4582	4645	4645	4645	4645	4582	4582	4522	4522	4463	4463	4405	4405	4463	4405	4405	4349	4295	4295	4241	4241	4241	4241	4241	798	798	798	798	798	792	790	789	789	790	790	789	789	789	789	789	790	790	790	798	802	803	803	807	815	815	813	813	813	813	813	823	0	0	0	0	0	0	0	0	0	0	0	0	2333	2333	2317	2301	2301	2286	2286	2271	2271	2256	2256	2241	2226	2212	2212	2212	2198	2184	2184	2170	2170	2156	2143	2129	2116	2116	2103	2103	2090	2078	2078	2065	2065	2053	2053	
4349	4405	4405	4405	4463	4463	4463	4463	4522	4522	4522	4522	4522	4522	4522	4582	4582	4582	4645	4645	4645	4645	4582	4582	4582	4522	4463	4463	4405	4405	4405	4405	4405	4349	4295	4241	4241	4295	800	798	798	798	796	796	796	790	790	789	787	787	787	787	787	787	787	787	787	789	787	787	792	794	798	798	802	811	815	813	811	811	813	823	823	821	0	0	0	0	0	0	0	0	0	0	0	0	0	0	2301	2286	2286	2286	2286	2271	2271	2256	2241	2226	2226	2226	2212	2198	2184	2184	2170	2170	2156	2143	2143	2129	2116	2103	2103	2090	2078	2078	2065	2065	2053	2053	
4349	4405	4405	4405	4463	4463	4463	4463	4522	4522	4522	4522	4522	4522	4522	4522	4582	4582	4645	4645	4645	4645	4645	4582	4582	4463	4463	4405	4405	4405	4405	4405	4405	4295	4295	4241	4241	798	798	798	798	796	790	789	787	787	787	787	787	787	787	787	787	787	787	787	787	789	785	783	783	783	794	794	798	811	815	811	811	811	811	811	821	0	0	0	0	0	0	0	0	0	0	0	0	0	0	0	0	2271	2271	2286	2286	2271	2271	2256	2241	2226	2226	2226	2212	2198	2184	2170	2170	2170	2156	2143	2143	2116	2116	2103	2090	2090	2078	2065	2053	2053	2053	2053	
4349	4405	4405	4405	4463	4463	4463	4522	4522	4522	4522	4463	4463	4522	4522	4522	4582	4582	4645	4645	4645	4645	4645	4582	4522	4463	4463	4405	4405	4405	4405	4405	4405	4295	4241	4241	800	798	798	798	798	796	790	789	787	787	787	787	787	787	787	787	787	787	789	789	787	787	781	781	781	781	789	792	794	796	798	803	805	809	809	809	815	0	0	0	0	0	0	0	0	0	0	0	0	0	0	0	0	2271	2271	2286	2286	2271	2271	2256	2241	2226	2226	2212	2212	2198	2184	2170	2170	2170	2156	2143	2129	2116	2116	2103	2090	2090	2078	2065	2053	2053	2053	2053	
4349	4405	4405	4405	4463	4463	4463	4522	4522	4522	4463	4463	4463	4463	4463	4522	4582	4645	4645	4645	4645	4645	4582	4582	4522	4463	4463	4405	4405	4405	4405	4405	4405	4405	4241	802	800	798	798	798	798	798	798	789	787	787	787	787	787	787	787	787	787	789	789	789	787	787	781	781	781	781	783	787	792	794	796	798	803	807	807	807	809	809	819	825	0	0	0	0	0	0	0	0	0	0	0	0	0	0	2286	2271	2271	2271	2256	2256	2241	2226	2226	2212	2212	2198	2184	2170	2170	2170	2156	2143	2129	2116	2116	2103	2103	2090	2078	2078	2065	2065	2065	2053	
4349	4405	4405	4463	4463	4463	4463	4522	4522	4522	4463	4463	4463	4463	4463	4522	4582	4582	4645	4645	4645	4645	4582	4522	4463	4463	4463	4405	4405	4405	4405	811	809	807	805	802	800	800	800	798	798	798	798	789	787	787	787	789	789	789	789	789	789	789	789	789	789	789	785	781	781	781	783	785	789	792	794	794	796	803	807	807	807	807	813	821	821	821	0	0	0	0	0	0	0	0	0	0	0	0	0	2271	2271	2271	2256	2256	2241	2226	2226	2212	2212	2198	2184	2170	2170	2156	2156	2143	2129	2116	2103	2103	2103	2090	2090	2078	2078	2065	2065	2053	
4405	4405	4405	4405	4463	4463	4463	4463	4463	4522	4463	4463	4463	4463	4463	4522	4582	4582	4582	4582	4582	4582	4522	4522	4463	4463	4463	4463	4405	4405	815	811	809	807	805	803	802	800	800	800	800	800	800	790	790	789	789	789	789	789	790	790	790	790	790	789	789	789	785	785	785	785	785	785	787	789	790	792	794	800	805	807	807	807	809	817	821	821	825	827	858	858	0	0	0	0	0	0	0	0	0	0	2286	2271	2256	2226	2226	2226	2212	2212	2212	2198	2184	2184	2170	2156	2156	2143	2129	2116	2103	2103	2103	2090	2090	2078	2078	2065	2065	2053	
4349	4405	4405	4405	4463	4463	4463	4463	4463	4522	4463	4463	4463	4463	4463	4522	4582	4582	4582	4582	4582	4522	4522	4522	4463	4463	4463	4463	4405	4405	815	813	811	809	809	807	805	803	802	802	803	803	803	792	792	792	794	794	790	790	790	792	792	792	790	789	789	789	787	787	787	787	787	787	787	787	789	790	792	798	800	805	805	805	805	811	819	823	825	827	858	858	860	0	0	0	0	0	0	0	0	0	0	0	0	2226	2212	2212	2212	2212	2212	2198	2184	2184	2170	2170	2156	2143	2129	2116	2103	2103	2103	2090	2090	2090	2078	2065	2053	2053	
4349	4405	4405	4405	4405	4463	4463	4463	4463	4522	4463	4463	4463	4463	4522	4522	4582	4582	4582	4582	4582	4522	4522	4522	4463	4463	4463	4463	4405	823	819	817	815	813	813	811	807	805	803	803	803	803	807	805	805	803	803	803	805	802	800	798	798	798	794	790	790	790	789	789	789	789	787	787	787	787	789	789	790	794	796	800	803	805	805	809	819	823	825	827	835	858	860	864	0	0	0	0	0	0	0	0	0	0	0	0	2198	2198	2212	2198	2198	2198	2184	2184	2170	2170	2156	2143	2129	2116	2103	2103	2103	2090	2090	2090	2078	2065	2053	2053	
4349	4349	4349	4405	4405	4463	4463	4463	4463	4522	4463	4463	4522	4522	4522	4582	4582	4582	4582	4582	4582	4522	4522	4522	4463	4463	4463	4463	4405	823	823	821	821	821	817	815	815	811	809	809	807	807	807	805	805	805	805	805	805	805	803	803	803	803	800	796	794	792	790	790	790	790	789	789	787	787	787	789	789	792	794	796	802	805	805	807	819	823	827	829	835	841	860	862	0	0	0	0	0	0	0	0	0	0	0	0	2198	2198	2198	2198	2198	2198	2184	2184	2170	2170	2156	2143	2143	2129	2103	2103	2103	2090	2090	2078	2078	2065	2053	2053	
4349	4349	4349	4405	4405	4463	4463	4463	4522	4522	4463	4463	4522	4522	4582	4582	4582	4582	4582	4582	4582	4522	4522	4522	4522	4522	4522	4463	845	823	823	823	823	823	821	819	819	815	813	813	811	811	807	807	805	805	805	803	803	802	802	802	802	802	800	798	796	796	796	798	798	800	790	789	787	787	787	787	789	790	792	796	800	803	803	805	811	823	827	833	835	837	841	860	864	864	0	0	0	0	0	0	0	0	0	0	0	2198	2198	2198	2198	2198	2184	2184	2170	2170	2156	2143	2143	2129	2116	2103	2103	2090	2090	2065	2065	2053	2053	2053	
4349	4349	4349	4405	4405	4463	4463	4463	4522	4522	4463	4463	4463	4463	4582	4582	4582	4582	4582	4582	4582	4582	4522	4522	4522	4522	4463	4463	841	837	827	823	823	825	823	823	821	817	815	813	809	807	805	805	803	803	802	802	800	798	798	798	798	798	798	798	798	798	798	800	802	802	802	803	789	789	787	785	785	789	792	796	800	802	803	803	805	823	827	831	833	835	839	856	858	860	0	0	0	0	0	0	0	0	0	0	0	2212	2212	2198	2198	2198	2198	2198	2184	2170	2156	2143	2129	2129	2116	2103	2103	2090	2090	2065	2065	2053	2053	2053	
4349	4405	4405	4405	4405	4463	4463	4463	4522	4522	4463	4463	4463	4463	4582	4582	4582	4582	4582	4582	4582	4582	4522	4522	4522	4522	4463	4463	841	837	833	829	827	825	823	821	819	817	813	811	807	805	803	803	802	800	798	798	796	796	796	794	794	796	794	794	796	796	796	796	798	800	802	803	807	809	811	785	785	789	792	796	800	802	802	803	805	811	817	827	831	835	839	847	858	860	0	0	0	0	0	0	0	0	0	0	0	0	2198	2198	2198	2198	2198	2198	2184	2170	2156	2143	2129	2116	2116	2103	2103	2090	2090	2065	2065	2053	2053	2040	
4405	4405	4405	4405	4405	4463	4463	4522	4522	4522	4463	4463	4463	4463	4582	4582	4582	4582	4582	4582	4522	4522	4522	4522	4522	4522	854	851	845	839	837	833	829	825	821	817	815	809	809	807	805	803	802	800	798	798	796	796	794	792	792	792	792	792	792	792	792	792	794	794	796	796	798	802	803	805	809	811	815	815	815	802	802	802	802	803	805	811	817	821	827	833	837	845	858	858	0	0	0	0	0	0	0	0	0	0	0	0	2198	2198	2198	2198	2198	2198	2184	2170	2156	2143	2129	2116	2116	2103	2103	2090	2090	2065	2065	2053	2053	2040	
4405	4405	4405	4405	4405	4463	4463	4463	4522	4522	4463	4463	4463	4522	4582	4582	4582	4582	4582	4582	4522	4522	4522	4522	4522	4522	854	851	849	839	837	835	831	817	815	811	811	805	805	805	803	800	798	796	796	794	794	792	790	790	790	790	790	789	789	789	790	790	790	792	794	794	796	796	800	803	805	809	811	813	815	805	802	802	802	803	803	807	813	817	825	831	835	843	856	858	860	0	0	0	0	0	0	0	0	0	0	0	0	2212	2212	2198	2198	2198	2184	2170	2156	2143	2129	2129	2116	2103	2103	2103	2090	2065	2065	2053	2053	2040	
4405	4405	4405	4405	4405	4463	4463	4463	4522	4522	4463	4463	4522	4522	4522	4522	4582	4582	4582	4645	4582	4582	4522	4522	4522	862	862	856	856	839	837	835	815	813	811	807	805	803	802	800	798	796	794	794	792	790	790	790	789	789	789	789	787	787	787	787	789	789	789	789	790	792	794	794	798	802	803	805	807	809	811	815	815	803	803	803	803	807	813	817	823	829	833	837	856	858	860	0	0	0	0	0	0	0	0	0	0	0	0	2226	2212	2198	2198	2184	2184	2170	2156	2143	2129	2116	2116	2103	2103	2103	2090	2078	2078	2065	2053	2040	
4349	4349	4405	4405	4463	4463	4463	4463	4463	4522	4463	4463	4463	4522	4522	4522	4582	4582	4582	4645	4582	4582	4582	4582	4522	862	862	858	858	871	871	815	813	809	809	803	803	800	798	798	796	794	792	790	790	789	789	789	787	787	785	785	785	785	785	787	787	789	789	789	789	789	790	792	794	796	802	803	803	805	807	811	813	809	803	803	805	809	813	815	819	827	831	835	858	858	862	875	875	875	0	0	0	0	0	0	0	0	0	0	2212	2198	2184	2184	2170	2170	2156	2143	2129	2116	2116	2103	2103	2103	2090	2078	2078	2065	2053	2040	
4349	4349	4405	4405	4463	4463	4463	4463	4463	4522	4463	4463	4463	4522	4522	4582	4582	4582	4582	4645	4645	4645	4582	4522	4463	867	867	869	869	871	815	813	811	807	805	800	800	796	796	796	794	792	790	789	789	787	787	785	783	783	783	783	783	785	785	785	787	789	787	787	789	789	790	790	794	796	798	802	802	803	803	807	809	813	807	807	807	809	809	813	819	825	829	833	839	856	862	871	873	875	0	0	0	0	0	0	0	0	0	0	2212	2184	2170	2170	2170	2170	2170	2143	2129	2116	2116	2103	2090	2090	2090	2078	2078	2065	2053	2040	
4349	4349	4405	4405	4463	4463	4463	4463	4463	4522	4463	4463	4463	4522	4522	4522	4582	4582	4582	4645	4645	4645	4582	869	867	867	867	869	871	817	815	813	809	805	803	798	798	796	796	794	792	790	789	787	787	785	785	783	783	783	783	783	783	783	783	785	785	787	787	787	789	789	789	790	792	794	796	798	800	802	803	805	807	811	811	809	809	809	809	811	819	825	829	833	837	851	862	867	869	869	0	0	0	0	0	0	0	0	0	0	0	2156	2156	2156	2170	2170	2156	2143	2143	2116	2116	2103	2090	2090	2090	2090	2078	2065	2053	2040	
4349	4349	4405	4405	4463	4463	4463	4463	4522	4522	4463	4463	4463	4522	4522	4522	4522	4582	4582	4645	4582	4582	4582	867	867	867	867	869	871	817	815	811	805	803	800	798	796	796	794	794	790	789	787	787	785	783	783	783	783	781	781	781	781	783	783	783	783	785	785	785	787	787	789	789	790	792	792	794	796	800	802	803	805	809	811	811	809	809	809	811	813	825	829	833	837	849	856	864	869	869	0	0	0	0	0	0	0	0	0	0	0	2156	2156	2156	2170	2170	2156	2143	2143	2116	2103	2090	2090	2090	2090	2090	2078	2065	2053	2053	
4349	4349	4405	4405	4463	4463	4463	4463	4522	4522	4463	4463	4522	4522	4522	4522	4522	4522	4582	4582	4582	4582	867	867	867	869	869	871	819	817	813	809	805	802	798	796	794	794	792	790	789	787	785	785	783	783	783	781	781	781	781	781	781	781	781	783	783	783	785	785	787	787	787	789	789	790	790	792	794	796	800	802	803	807	809	811	809	809	809	811	813	825	829	833	835	843	851	864	869	0	0	0	0	0	0	0	0	0	0	0	0	2143	2143	2156	2170	2170	2170	2143	2143	2116	2103	2090	2090	2090	2090	2090	2078	2065	2053	2053	
4349	4349	4405	4405	4463	4463	4463	4463	4522	4522	4463	4463	4463	4522	4522	4522	4522	4522	4582	4582	4582	4522	867	867	867	867	869	869	819	817	811	807	803	800	796	794	792	792	790	789	787	785	785	783	783	781	781	781	781	781	781	780	780	780	780	781	781	783	781	781	783	785	785	787	787	789	789	790	792	794	796	798	802	803	807	809	809	809	809	811	813	823	827	831	835	841	847	875	875	0	0	0	0	0	0	0	0	0	0	0	0	2143	2143	2156	2170	2170	2170	2143	2143	2129	2103	2090	2090	2090	2090	2078	2078	2065	2053	2040	
4349	4405	4405	4405	4405	4405	4463	4463	4463	4522	4463	4463	4463	4463	4522	4522	4522	4522	4582	4582	4582	4522	867	867	867	867	867	821	817	815	807	805	803	798	794	792	792	790	789	787	787	785	783	783	781	781	781	781	781	780	780	780	778	778	780	780	781	781	781	781	781	781	783	785	787	787	789	790	790	792	794	796	800	803	805	809	809	809	811	811	817	823	825	829	835	839	843	875	875	0	0	0	0	0	0	0	0	0	0	0	0	2143	2143	2156	2170	2170	2170	2143	2143	2129	2103	2103	2090	2090	2078	2065	2065	2053	2053	2040	
4349	4405	4405	4405	4405	4405	4463	4463	4463	4522	4463	4463	4463	4463	4522	4522	4522	4582	4582	4582	4582	4522	867	867	867	867	867	821	817	813	805	803	798	796	794	792	790	789	789	787	787	785	783	781	781	781	780	780	780	778	778	776	776	776	776	776	780	780	780	780	781	781	781	781	783	783	787	787	789	790	794	794	796	802	803	805	809	811	813	813	817	823	825	829	833	839	841	875	875	0	0	0	0	0	0	0	0	0	0	0	0	2156	2156	2170	2170	2170	2170	2143	2143	2129	2116	2103	2090	2090	2078	2065	2065	2053	2053	2040	
4405	4405	4405	4349	4349	4405	4463	4463	4463	4522	4463	4463	4463	4463	4463	4522	4522	4522	4582	4582	4582	4522	864	864	867	867	823	821	817	809	803	802	798	796	792	790	790	789	787	787	783	783	781	781	780	778	778	776	776	776	776	776	774	774	776	776	776	778	778	778	780	780	781	781	781	783	783	785	787	789	792	794	796	798	802	803	807	811	815	817	819	823	825	829	833	839	841	843	0	0	0	0	0	0	0	0	0	0	0	0	0	0	2170	2170	2170	2156	2156	2143	2129	2116	2103	2103	2090	2090	2090	2065	2065	2053	2053	2053	
4349	4349	4349	4349	4349	4405	4463	4463	4463	4463	4463	4463	4463	4463	4463	4522	4522	4522	4522	4522	4522	4522	864	864	864	825	821	819	811	805	802	800	796	794	792	790	789	787	787	785	783	781	781	780	778	776	776	776	776	776	776	776	774	774	776	776	776	778	776	776	780	780	780	781	781	781	781	783	787	789	792	792	794	798	802	803	805	811	813	817	821	825	827	829	835	839	843	843	0	0	0	0	0	0	0	0	0	0	0	0	0	2156	2156	2170	2170	2156	2156	2143	2129	2116	2103	2103	2090	2090	2090	2078	2065	2053	2053	2053	
4349	4349	4349	4349	4349	4405	4463	4463	4463	4463	4405	4405	4463	4463	4463	4522	4522	4522	4522	4522	4522	4522	864	864	864	825	821	815	807	803	802	798	796	792	790	789	787	785	785	783	781	781	778	778	776	776	774	774	774	774	774	774	774	774	774	774	774	776	774	774	778	778	780	780	780	780	781	783	785	789	790	792	794	798	802	803	805	807	811	815	819	825	827	829	835	839	843	843	0	0	0	0	0	0	0	0	0	0	0	0	0	2156	2156	2170	2170	2170	2156	2143	2129	2116	2103	2103	2090	2090	2090	2078	2065	2065	2053	2053	
4349	4349	4405	4405	4405	4405	4463	4463	4463	4463	4405	4405	4405	4463	4463	4522	4522	4522	4522	4522	4522	4522	864	864	864	827	817	811	805	802	800	796	792	792	789	785	783	783	783	781	781	780	778	776	774	774	773	773	773	773	773	773	773	773	773	773	774	774	774	774	774	778	778	780	780	780	781	783	783	787	789	790	792	796	800	802	803	807	811	815	819	825	827	831	835	839	843	843	0	0	0	0	0	0	0	0	0	0	0	0	2198	2184	2170	2170	2170	2170	2156	2129	2116	2103	2103	2103	2090	2090	2090	2078	2078	2065	2053	2040	
4349	4349	4405	4405	4405	4463	4463	4463	4463	4463	4405	4405	4405	4463	4463	4463	4463	4522	4522	4522	4463	4463	864	864	867	829	815	809	800	798	796	794	790	789	785	783	783	781	781	781	780	778	776	774	773	773	771	771	771	771	771	771	773	771	771	771	773	773	774	774	774	776	778	778	780	780	781	781	783	787	787	789	792	796	798	802	803	807	811	815	817	823	827	831	835	841	845	845	0	0	0	0	0	0	0	0	0	0	0	0	2198	2198	2184	2170	2170	2170	2156	2129	2116	2103	2103	2103	2090	2090	2090	2078	2065	2053	2053	2040	
4349	4349	4405	4405	4463	4463	4463	4463	4463	4463	4405	4405	4463	4463	4463	4463	4463	4522	4522	4522	4463	4463	4463	869	833	833	811	803	798	796	794	790	789	785	783	783	781	781	781	780	778	776	776	774	773	771	769	769	769	771	771	771	771	771	771	771	771	771	773	773	773	774	774	776	780	780	781	781	783	785	787	787	790	794	796	800	803	805	811	815	817	823	827	833	835	841	841	854	0	0	0	0	0	0	0	0	0	0	0	0	0	0	2184	2170	2170	2170	2156	2143	2129	2116	2103	2103	2103	2090	2090	2078	2065	2053	2053	2040	
4349	4349	4349	4405	4405	4463	4463	4463	4463	4463	4463	4463	4463	4463	4463	4463	4463	4522	4522	4522	4463	4463	4463	4463	833	833	809	800	796	794	792	790	789	785	783	781	781	781	780	778	778	776	774	774	773	769	769	769	769	769	769	769	769	769	769	769	769	769	771	773	773	773	774	776	778	780	780	781	781	783	785	787	790	794	796	800	803	805	811	815	819	823	827	833	835	841	849	854	862	869	0	0	0	0	0	0	0	0	0	0	0	0	2184	2170	2170	2170	2156	2143	2129	2116	2103	2103	2103	2090	2090	2078	2065	2053	2053	2040	
4349	4349	4349	4405	4405	4405	4463	4463	4463	4463	4463	4463	4463	4463	4463	4522	4522	4522	4522	4522	4463	4463	4463	4463	827	827	807	798	794	792	790	789	787	783	783	781	781	780	780	778	776	776	774	773	773	769	769	767	767	769	769	769	769	769	769	769	769	769	769	769	771	771	773	774	776	778	780	780	781	783	785	789	792	794	796	798	803	807	811	815	821	823	827	831	835	845	849	854	862	867	0	0	0	0	0	0	0	0	0	0	0	0	2184	2170	2170	2170	2156	2143	2129	2116	2103	2103	2090	2090	2078	2065	2065	2053	2053	2040	
4295	4349	4349	4405	4405	4405	4405	4463	4463	4463	4463	4463	4463	4463	4463	4522	4522	4522	4522	4522	4522	4522	4522	4522	827	798	798	796	792	790	790	789	787	783	783	781	781	780	780	778	776	776	774	773	773	769	767	767	767	767	767	767	767	767	767	767	767	767	767	767	769	771	773	773	774	776	778	780	781	781	783	787	792	794	796	798	803	807	811	815	821	825	827	831	835	845	851	858	862	867	0	0	0	0	0	0	0	0	0	0	0	0	2170	2170	2170	2170	2156	2143	2129	2116	2103	2103	2090	2090	2078	2065	2065	2053	2053	2040	
4295	4349	4349	4405	4405	4405	4405	4463	4463	4463	4463	4463	4463	4463	4463	4463	4522	4522	4522	4522	4522	4463	4463	4463	4522	798	798	796	792	790	789	789	787	783	783	781	781	781	780	778	776	776	774	773	771	769	767	767	767	767	767	767	767	766	766	767	767	767	767	767	769	771	773	773	774	774	776	778	780	781	783	787	792	794	796	798	802	805	809	813	821	825	827	831	835	843	854	860	862	0	0	0	0	0	0	0	0	0	0	0	0	0	2170	2170	2170	2170	2156	2143	2129	2116	2103	2103	2090	2090	2078	2065	2065	2053	2053	2040	
4295	4295	4349	4349	4349	4405	4463	4463	4463	4463	4463	4463	4463	4463	4463	4463	4463	4463	4522	4522	4522	4463	4463	4463	4522	798	796	796	792	790	789	789	785	783	783	781	781	781	780	780	778	776	774	773	771	769	767	767	767	767	767	766	766	766	766	766	766	766	766	766	766	769	771	773	774	774	776	778	780	781	781	785	789	792	794	796	800	805	809	813	819	823	827	831	835	841	854	860	864	0	0	0	0	0	0	0	0	0	0	0	0	2170	2170	2170	2170	2170	2156	2143	2129	2116	2103	2103	2090	2090	2090	2078	2065	2053	2053	2040	
4295	4295	4349	4349	4349	4405	4463	4463	4463	4463	4463	4463	4463	4463	4463	4463	4463	4463	4522	4522	4522	4463	4463	4463	4522	798	796	796	794	790	789	789	785	783	783	783	783	781	781	780	780	778	776	776	773	771	769	769	767	767	766	764	764	762	762	764	764	764	766	766	766	769	771	773	774	776	776	778	780	781	781	785	789	792	794	796	800	803	807	811	817	823	827	831	835	841	854	862	867	0	0	0	0	0	0	0	0	0	0	0	0	2156	2156	2170	2170	2156	2156	2143	2129	2116	2103	2103	2090	2090	2090	2078	2065	2053	2053	2040	
4295	4295	4295	4295	4349	4405	4463	4463	4463	4522	4463	4463	4463	4463	4463	4463	4463	4463	4463	4522	4522	4463	4463	4463	800	798	796	796	794	792	790	789	787	787	785	783	783	783	781	781	780	780	778	776	773	769	769	769	767	767	766	764	764	762	762	764	762	762	762	762	752	773	773	773	774	776	776	778	780	781	781	785	787	790	794	796	800	802	805	809	815	821	827	831	839	843	0	0	0	0	0	0	0	0	0	0	0	0	0	0	0	2156	2156	2170	2170	2156	2156	2143	2129	2116	2103	2103	2090	2090	2090	2078	2065	2053	2053	2040	
4295	4295	4295	4295	4295	4349	4463	4463	4522	4522	4463	4463	4463	4463	4463	4463	4463	4463	4463	4522	4522	4463	4463	4463	800	798	796	796	794	792	790	789	789	787	787	785	785	785	783	783	783	781	780	776	773	769	769	769	769	769	766	764	764	764	764	764	762	761	754	752	752	749	747	747	747	776	776	781	781	781	781	785	787	790	794	796	800	802	805	809	815	821	827	835	839	843	0	0	0	0	0	0	0	0	0	0	0	0	0	0	0	2170	2170	2170	2170	2156	2156	2129	2116	2116	2103	2103	2103	2090	2090	2078	2065	2065	2053	2040	
4295	4295	4295	4295	4295	4349	4405	4463	4522	4522	4463	4463	4463	4463	4463	4463	4463	4522	4522	4522	4463	4463	4522	800	800	798	796	796	794	792	790	789	789	789	789	787	785	785	785	783	783	781	780	778	778	769	769	769	769	771	767	766	766	766	766	766	762	761	754	752	752	749	747	747	747	776	776	776	780	780	781	787	787	790	792	796	800	802	805	809	815	821	831	835	839	843	847	0	0	0	0	0	0	0	0	0	0	0	0	0	0	2156	2156	2170	2170	2156	2156	2129	2116	2116	2103	2103	2103	2090	2090	2078	2078	2053	2053	2053	
4295	4295	4295	4349	4349	4349	4405	4463	4522	4522	4463	4463	4463	4463	4463	4463	4463	4522	4522	4522	4463	4463	4522	800	800	798	796	796	792	792	790	789	789	789	789	787	785	785	785	781	781	781	780	780	780	771	771	771	771	774	773	771	769	767	767	767	764	764	764	767	767	771	774	774	774	776	776	778	780	780	781	787	787	790	792	796	800	802	805	811	815	821	831	837	839	843	847	0	0	0	0	0	0	0	0	0	0	0	0	0	0	2156	2156	2170	2170	2170	2156	2129	2129	2116	2103	2103	2103	2090	2090	2078	2078	2053	2053	2053	
4295	4295	4295	4349	4349	4349	4405	4463	4522	4522	4463	4463	4463	4463	4463	4463	4463	4463	4522	4522	4463	4463	4522	796	796	800	798	796	792	792	790	790	790	789	789	783	781	781	780	778	778	778	780	780	781	781	780	780	778	776	774	773	771	769	769	769	769	769	767	767	771	771	771	773	774	778	778	778	780	781	781	785	787	789	790	794	800	803	809	811	817	823	831	837	839	843	845	0	0	0	0	0	0	0	0	0	0	0	0	0	0	2170	2170	2170	2170	2170	2170	2143	2129	2116	2116	2103	2103	2090	2090	2078	2065	2053	2053	2053	
4295	4295	4295	4349	4349	4405	4463	4463	4463	4522	4463	4463	4463	4463	4463	4463	4463	4463	4522	4522	4522	4522	796	796	796	800	800	798	796	794	792	790	790	789	789	783	780	778	778	778	774	774	769	769	781	781	781	781	780	778	776	774	773	771	771	769	769	771	771	771	771	771	771	773	774	778	778	780	781	781	781	785	787	789	790	794	798	802	809	811	819	819	843	843	843	843	843	845	0	0	0	0	0	0	0	0	0	0	0	0	0	2184	2184	2184	2184	2170	2170	2143	2129	2129	2116	2103	2103	2090	2078	2078	2065	2053	2053	2053	
4295	4295	4295	4349	4405	4405	4463	4463	4463	4522	4405	4405	4405	4463	4463	4463	4463	4463	4463	4522	4522	4522	4522	805	805	805	805	802	798	796	794	792	792	790	790	785	780	778	778	776	774	774	769	769	781	781	781	781	778	776	774	773	773	771	771	769	769	769	769	769	771	771	771	773	774	780	780	780	781	781	781	785	787	789	790	794	798	802	807	811	811	843	843	843	843	843	843	845	849	849	0	0	0	0	0	0	0	0	0	0	0	0	2198	2184	2184	2170	2170	2143	2143	2129	2116	2103	2103	2090	2078	2065	2065	2053	2053	2053	
4295	4295	4349	4349	4405	4405	4405	4463	4463	4463	4405	4405	4405	4463	4463	4463	4463	4463	4463	4463	4522	4522	0	823	817	817	815	805	800	798	796	796	794	792	789	785	781	780	778	776	776	774	773	773	774	776	778	780	778	776	774	773	771	771	769	769	769	769	769	769	769	769	771	773	774	778	780	780	781	781	783	785	787	789	790	794	798	802	807	811	811	841	841	841	841	843	843	847	849	849	851	0	0	0	0	0	0	0	0	0	0	0	0	2184	2170	2156	2156	2143	2143	2129	2116	2116	2103	2090	2078	2065	2065	2053	2053	2053	
4295	4349	4349	4349	4405	4405	4405	4463	4463	4463	4405	4405	4405	4463	4463	4463	4522	4463	4463	4463	4522	4522	4463	823	823	819	817	807	802	798	796	796	792	792	789	785	781	780	778	774	774	773	773	773	773	774	776	778	776	776	774	773	771	769	769	769	769	769	767	767	767	767	771	773	774	776	778	780	780	781	783	785	787	789	790	794	798	802	807	811	817	817	841	841	841	843	845	849	851	851	851	0	0	0	0	0	0	0	0	0	0	0	0	0	2170	2156	2143	2143	2143	2129	2116	2116	2103	2090	2078	2065	2065	2053	2053	2053	
4349	4349	4349	4349	4349	4349	4349	4405	4463	4463	4463	4405	4405	4463	4463	4463	4463	4463	4463	4463	4463	4463	4463	823	823	821	819	805	800	798	796	794	792	792	790	787	783	780	773	771	771	771	771	773	773	774	774	776	776	774	774	773	771	769	769	769	769	769	767	767	767	767	771	773	774	774	776	778	780	780	781	783	785	787	790	794	798	802	807	811	817	835	835	839	841	845	849	851	851	854	854	0	0	0	0	0	0	0	0	0	0	0	0	0	0	2156	2143	2129	2129	2129	2116	2116	2103	2090	2078	2065	2065	2053	2053	2053	
4295	4349	4349	4349	4349	4349	4349	4405	4463	4463	4463	4405	4405	4463	4463	4463	4463	4522	4463	4463	4463	4463	4463	821	821	817	809	805	800	798	796	794	792	792	790	787	783	776	769	769	769	769	769	771	773	773	774	774	774	774	774	773	771	771	769	769	769	769	767	767	767	767	771	773	773	773	774	776	778	780	780	781	785	787	790	794	800	803	807	811	817	835	835	839	841	847	849	851	854	854	856	858	0	0	0	0	0	0	0	0	0	0	0	0	0	2170	2156	2129	2129	2129	2116	2103	2103	2090	2090	2065	2065	2065	2053	2053	
4295	4349	4349	4349	4349	4349	4349	4405	4463	4463	4405	4405	4463	4463	4463	4463	4463	4522	4463	4463	4463	4463	4463	821	819	813	809	805	800	798	796	794	792	792	790	787	783	771	769	767	767	767	767	769	771	771	773	774	774	774	774	774	773	771	771	769	769	769	767	767	767	767	769	771	773	773	774	774	776	778	780	781	783	787	789	794	800	803	807	811	817	835	835	841	845	849	851	854	856	856	858	858	0	0	0	0	0	0	0	0	0	0	0	0	0	2170	2156	2129	2129	2129	2116	2103	2103	2090	2090	2065	2065	2065	2053	2053	
4295	4295	4349	4349	4349	4349	4349	4405	4463	4463	4405	4405	4463	4463	4463	4463	4463	4463	4522	4522	4463	4463	4463	821	815	813	809	803	800	798	796	794	794	792	790	787	783	767	766	766	766	766	767	767	769	769	773	774	774	774	774	774	773	771	771	769	769	769	767	767	767	767	767	769	771	771	773	774	774	776	780	781	783	785	789	794	800	803	807	809	811	837	837	843	847	851	854	854	858	858	860	860	0	0	0	0	0	0	0	0	0	0	0	0	0	2156	2156	2129	2129	2116	2116	2103	2103	2090	2090	2065	2065	2065	2053	2053	
4295	4295	4295	4349	4349	4349	4349	4405	4463	4463	4463	4463	4463	4463	4463	4463	4463	4463	4463	4522	4522	4522	4522	4522	811	811	807	803	802	800	798	796	792	790	789	787	783	762	762	762	762	764	766	767	767	769	771	774	774	774	774	773	771	771	769	769	769	769	767	766	766	767	767	767	769	769	773	773	774	776	780	781	783	785	789	794	798	802	803	809	811	841	841	845	849	851	854	854	858	858	860	860	0	0	0	0	0	0	0	0	0	0	0	0	0	2156	2156	2143	2129	2116	2103	2103	2090	2090	2090	2078	2065	2053	2053	2040	
4295	4295	4295	4349	4349	4349	4405	4405	4463	4463	4463	4463	4463	4463	4463	4463	4463	4463	4463	4522	4522	4522	4522	4522	811	809	805	803	802	802	800	796	792	790	789	789	789	761	761	761	761	762	762	766	767	769	771	773	774	774	773	773	769	769	769	769	769	769	767	766	766	766	767	767	769	769	773	773	774	776	778	781	783	785	789	792	796	800	803	809	813	815	843	847	849	851	854	854	856	858	860	860	0	0	0	0	0	0	0	0	0	0	0	0	2170	2156	2156	2143	2129	2116	2103	2103	2090	2090	2090	2078	2065	2053	2053	2040	
4295	4295	4295	4349	4349	4349	4405	4405	4405	4463	4463	4463	4463	4463	4463	4463	4463	4463	4463	4522	4522	4522	4522	813	811	809	805	803	802	800	798	794	790	790	789	789	789	761	759	757	757	759	761	762	766	766	769	771	774	774	773	773	769	769	769	767	767	767	767	766	766	766	767	767	769	769	773	773	774	774	778	781	783	785	789	792	796	800	802	807	811	813	849	849	851	854	854	854	856	858	860	0	0	0	0	0	0	0	0	0	0	0	0	0	2156	2156	2156	2143	2129	2116	2103	2103	2090	2090	2090	2078	2065	2053	2053	2040	
4295	4295	4295	4349	4349	4349	4405	4405	4405	4463	4405	4405	4463	4463	4463	4463	4463	4463	4463	4522	4463	4463	4522	813	811	809	805	803	800	798	794	792	790	790	790	790	762	759	757	755	755	755	757	759	762	762	766	769	771	773	773	773	771	769	767	767	767	767	767	766	766	766	767	767	769	769	773	773	774	774	778	781	783	785	789	792	794	798	802	805	811	813	817	856	856	854	854	854	856	856	860	0	0	0	0	0	0	0	0	0	0	0	0	2170	2156	2156	2156	2129	2129	2116	2103	2103	2090	2090	2078	2065	2053	2053	2053	2040	
4349	4349	4349	4349	4405	4405	4405	4405	4463	4463	4405	4405	4463	4463	4463	4463	4522	4463	4463	4522	4463	4463	4463	813	811	809	803	800	798	796	794	792	790	790	790	790	762	757	755	754	754	755	757	757	761	762	764	767	769	773	774	773	771	769	767	767	767	767	766	766	766	767	767	767	769	769	773	773	774	774	778	780	783	785	789	790	794	798	802	805	811	811	815	856	856	854	854	854	856	856	0	0	0	0	0	0	0	0	0	0	0	0	0	2170	2156	2156	2156	2129	2129	2116	2103	2103	2090	2090	2078	2065	2053	2053	2053	2040	
4295	4295	4295	4349	4405	4405	4405	4463	4463	4463	4405	4405	4463	4463	4463	4463	4463	4463	4522	4522	4463	4463	4463	815	813	807	803	800	798	796	794	792	792	790	790	790	762	757	755	754	754	755	757	757	761	762	764	766	769	771	773	773	771	769	767	767	767	767	766	766	766	767	767	767	771	771	773	773	774	774	778	780	781	785	789	790	794	796	802	805	811	811	815	854	851	851	854	856	858	858	0	0	0	0	0	0	0	0	0	0	0	0	0	2170	2156	2156	2156	2129	2116	2116	2103	2103	2090	2090	2065	2065	2053	2053	2053	2040	
4295	4295	4295	4295	4349	4405	4405	4463	4463	4463	4463	4463	4463	4463	4463	4463	4463	4463	4463	4463	4463	4463	4463	815	813	807	803	800	798	794	794	792	792	792	792	792	762	755	755	755	755	755	757	757	761	762	764	766	769	771	773	773	771	769	767	767	767	767	766	766	766	767	767	767	771	771	773	773	774	774	778	780	781	783	787	790	792	796	802	805	811	811	811	849	849	849	854	856	858	858	0	0	0	0	0	0	0	0	0	0	0	0	0	2170	2156	2156	2156	2129	2116	2116	2103	2103	2090	2090	2065	2065	2053	2053	2053	2040	
4295	4295	4295	4295	4349	4405	4405	4405	4463	4463	4405	4405	4405	4405	4405	4405	4405	4405	4405	4463	4405	4405	4405	4463	811	805	803	800	798	794	792	792	790	790	783	780	780	754	754	755	755	755	757	759	761	762	764	767	769	771	773	773	771	769	767	767	767	767	766	766	766	766	767	769	771	771	773	773	774	776	778	780	781	783	787	790	792	796	802	805	809	807	803	803	847	849	851	856	858	860	0	0	0	0	0	0	0	0	0	0	0	0	2156	2156	2156	2156	2156	2129	2116	2116	2103	2103	2090	2090	2065	2065	2053	2053	2053	2040	
4295	4295	4349	4349	4349	4405	4405	4349	4295	4295	4349	4295	4295	4241	4190	4190	4295	4349	4349	4241	4241	4241	4241	4405	809	805	803	800	798	794	792	790	790	790	783	780	780	754	754	755	755	757	759	761	764	766	767	767	769	771	773	773	771	769	767	767	767	767	766	766	766	766	767	767	771	771	773	773	774	776	780	781	781	783	787	790	794	796	802	805	809	807	803	803	845	847	851	854	858	0	0	0	0	0	0	0	0	0	0	0	0	0	2156	2156	2170	2170	2156	2129	2129	2116	2103	2103	2090	2078	2065	2065	2053	2053	2053	2040	
4295	4295	4349	4349	4349	4349	4349	4295	4295	4295	4190	4190	4190	4139	4139	4089	4089	4190	4190	4190	4190	4190	4190	4241	809	805	803	802	798	794	792	790	790	790	787	783	780	780	778	774	767	767	767	767	767	769	769	769	771	771	771	773	771	769	767	767	767	767	766	766	766	766	767	767	771	771	773	773	774	776	780	781	781	783	787	790	794	796	802	805	807	809	841	841	843	845	851	854	858	0	0	0	0	0	0	0	0	0	0	0	0	2156	2156	2170	2170	2170	2156	2129	2129	2116	2103	2103	2090	2078	2065	2065	2053	2053	2053	2040	
4295	4295	4349	4349	4295	4295	4349	4295	4241	4241	4139	4139	4139	4089	4089	4041	4041	4089	4089	4139	4190	4190	4190	4241	811	805	803	802	798	794	792	790	790	790	787	783	781	780	776	773	771	769	769	769	769	771	769	769	771	771	771	773	773	769	767	767	767	767	766	766	766	766	767	767	771	773	773	773	774	778	780	781	781	785	787	790	794	798	802	805	807	809	839	839	839	839	851	854	0	0	0	0	0	0	0	0	0	0	0	0	0	2156	2156	2170	2170	2156	2156	2129	2129	2116	2103	2103	2090	2078	2065	2065	2053	2053	2053	2040	
4295	4295	4295	4295	4295	4295	4295	4241	4241	4241	4139	4139	4139	4089	4089	4041	4041	4089	4089	4139	4190	4190	4190	4190	817	807	803	802	800	796	794	792	790	790	789	785	781	780	776	773	771	771	769	769	769	771	771	771	771	771	773	773	773	771	769	769	767	767	766	766	766	766	767	769	771	773	773	774	774	778	780	781	783	785	789	792	794	798	802	805	807	809	835	835	835	837	837	0	0	0	0	0	0	0	0	0	0	0	0	0	0	2170	2170	2170	2170	2156	2156	2129	2116	2103	2103	2103	2090	2078	2078	2065	2053	2053	2053	2053	
4295	4295	4295	4295	4295	4295	4295	4241	4241	4241	4190	4190	4190	4089	4089	4041	4041	4089	4139	4190	4190	4190	4190	4190	819	811	805	802	800	798	796	794	792	790	789	785	781	778	774	773	771	771	769	769	769	771	771	771	771	771	773	773	773	771	769	769	769	769	767	767	766	766	767	769	771	773	773	774	776	778	780	781	783	787	789	792	794	800	803	807	809	809	835	835	835	835	835	835	0	0	0	0	0	0	0	0	0	0	0	0	0	2184	2170	2170	2156	2156	2156	2129	2116	2103	2103	2103	2090	2078	2078	2065	2065	2053	2053	2053	
4295	4295	4295	4295	4295	4295	4295	4295	4241	4241	4190	4190	4190	4089	4089	4089	4089	4089	4139	4190	4190	4190	4190	4190	4190	813	805	802	800	798	796	794	792	790	787	783	780	776	774	773	771	771	771	769	769	769	771	771	771	771	773	773	773	771	769	769	769	769	767	767	767	767	767	769	771	773	774	774	776	778	780	781	785	787	789	792	794	800	803	807	809	809	835	835	835	835	835	835	0	0	0	0	0	0	0	0	0	0	0	0	0	2184	2170	2170	2156	2156	2156	2143	2129	2116	2103	2103	2090	2078	2065	2053	2053	2053	2040	2040	
4295	4295	4295	4295	4295	4295	4295	4295	4295	4241	4190	4190	4190	4089	4089	4089	4089	4089	4139	4190	4190	4190	4190	4190	4190	811	807	803	800	798	796	794	792	789	787	781	776	774	773	771	771	771	771	769	769	769	771	771	771	771	771	771	771	769	769	769	769	769	767	767	767	767	769	771	771	773	773	774	776	778	781	783	787	787	789	792	796	800	803	809	811	811	835	835	835	835	835	0	0	0	0	0	0	0	0	0	0	0	0	2212	2212	2184	2170	2170	2170	2170	2170	2143	2129	2116	2103	2103	2090	2078	2065	2053	2053	2053	2040	2040	
4295	4295	4349	4295	4295	4295	4295	4295	4295	4295	4190	4190	4139	4089	4089	4089	4089	4139	4139	4139	4190	4190	4190	4190	4241	811	809	805	802	798	796	794	792	789	787	780	776	774	773	771	771	769	769	769	769	769	769	769	769	769	771	769	769	769	769	769	769	769	767	767	767	769	771	771	771	773	773	774	776	780	781	785	787	787	789	792	798	802	805	811	813	817	817	835	835	835	837	0	0	0	0	0	0	0	0	0	0	2241	2212	2212	2184	2184	2170	2170	2170	2170	2170	2143	2129	2116	2116	2103	2090	2078	2065	2053	2053	2053	2040	2040	
4295	4295	4349	4349	4349	4349	4295	4295	4295	4241	4190	4139	4089	4089	4089	4089	4089	4139	4139	4139	4190	4190	4190	4190	4241	811	811	805	802	798	796	794	794	789	789	780	776	774	773	771	769	769	769	769	769	769	769	769	769	769	771	769	769	769	769	769	769	769	767	767	769	769	771	771	773	773	774	774	778	780	783	785	787	789	790	794	800	803	807	813	815	817	0	0	0	0	0	0	0	0	0	0	0	0	0	0	2226	2226	2212	2212	2184	2184	2170	2170	2170	2170	2170	2129	2116	2116	2103	2103	2090	2078	2065	2065	2053	2053	2040	2040	
4295	4295	4349	4349	4349	4349	4295	4295	4295	4241	4139	4089	4089	4041	4041	4089	4089	4089	4139	4139	4139	4139	4190	4190	4241	811	811	807	803	800	798	796	794	790	790	780	776	774	773	771	769	769	769	769	769	769	769	769	769	771	771	771	769	769	769	769	769	771	769	769	769	769	771	773	773	773	774	774	778	780	783	785	787	789	790	794	802	805	809	813	817	819	0	0	0	0	0	0	0	0	0	0	0	0	0	0	2226	2212	2212	2212	2184	2184	2170	2170	2170	2170	2156	2129	2116	2103	2103	2103	2090	2078	2078	2065	2053	2053	2040	2040	
4295	4295	4349	4349	4349	4349	4295	4295	4241	4241	4139	4089	4041	4041	4041	4041	4089	4089	4089	4139	4139	4139	4139	4190	4190	811	811	807	803	802	798	796	796	792	790	783	780	776	773	771	769	769	769	769	769	769	771	771	771	771	771	773	771	771	771	771	771	771	769	769	769	769	771	773	773	773	774	776	778	780	783	785	787	789	792	796	802	805	809	815	817	821	0	0	0	0	0	0	0	0	0	0	0	0	0	0	2226	2212	2212	2198	2184	2184	2170	2170	2170	2170	2156	2129	2116	2103	2103	2103	2090	2078	2078	2065	2065	2053	2040	2040	
4295	4295	4349	4349	4349	4349	4295	4295	4241	4241	4190	4089	4041	4041	4041	4041	4089	4089	4089	4089	4089	4139	4139	4139	4190	4241	817	811	805	802	800	798	796	794	792	789	785	781	776	773	771	771	771	771	771	771	773	773	773	774	774	774	774	773	773	771	771	773	771	771	771	771	773	773	773	774	774	776	780	781	783	787	789	790	794	796	802	805	811	815	817	819	0	0	0	0	0	0	0	0	0	0	0	0	0	0	2226	2212	2212	2198	2184	2184	2170	2170	2170	2170	2156	2129	2116	2103	2103	2103	2090	2090	2078	2078	2065	2053	2040	2028	
4295	4295	4295	4349	4349	4349	4295	4295	4295	4295	4190	4089	3994	3994	4041	4089	4089	4089	4089	4089	4089	4139	4139	4139	4190	4190	4190	811	805	803	802	798	796	796	794	792	789	785	780	776	773	773	773	773	773	773	773	774	774	776	776	776	774	774	774	773	773	773	771	771	771	773	773	774	774	774	776	778	780	783	785	787	790	790	794	798	803	809	813	817	817	819	0	0	0	0	0	0	0	0	0	0	0	0	0	0	2226	2212	2212	2198	2184	2184	2184	2170	2170	2170	2156	2129	2116	2103	2103	2103	2090	2090	2065	2065	2053	2053	2040	2028	
4295	4295	4295	4349	4349	4295	4241	4241	4241	4241	4190	4089	3994	3994	4041	4041	4089	4089	4089	4089	4089	4089	4139	4139	4139	4190	4190	4241	805	803	803	800	798	796	796	794	792	789	783	780	776	776	774	774	774	774	774	774	776	776	776	776	776	776	774	774	774	773	771	771	773	773	774	774	774	776	776	778	781	785	787	789	792	794	796	798	805	809	813	817	819	0	0	0	0	0	0	0	0	0	0	0	0	0	0	0	2212	2212	2212	2198	2184	2184	2170	2170	2170	2170	2156	2129	2116	2103	2103	2103	2090	2078	2065	2053	2053	2053	2040	2040	
4295	4295	4349	4349	4349	4295	4241	4241	4241	4241	4139	4089	4041	4041	4041	4041	4089	4089	4089	4089	4089	4089	4139	4139	4139	4190	4190	4241	4241	803	803	802	800	798	796	796	794	790	785	781	780	776	776	774	774	774	774	776	776	776	776	776	778	776	776	776	774	774	773	773	773	774	776	776	778	778	780	780	783	787	789	792	794	796	800	803	809	813	817	817	819	0	0	0	0	0	0	0	0	0	0	0	0	0	0	0	2212	2212	2212	2198	2184	2184	2170	2170	2170	2170	2156	2129	2116	2103	2103	2103	2090	2078	2065	2053	2053	2040	2040	2040	
4295	4295	4295	4349	4349	4295	4241	4241	4190	4190	4089	4089	4041	4041	4041	4089	4089	4089	4089	4089	4139	4139	4139	4139	4190	4190	4190	4190	4190	813	805	803	803	802	798	796	792	790	785	783	781	780	778	778	776	776	776	776	776	776	776	776	778	778	778	776	776	774	773	773	774	774	776	778	780	780	780	781	785	787	789	792	796	798	802	805	811	813	817	805	805	0	0	0	0	0	0	0	0	0	0	0	0	0	0	0	2212	2212	2212	2212	2198	2184	2170	2170	2170	2170	2156	2129	2116	2103	2103	2090	2090	2078	2065	2053	2053	2040	2040	2040	
4295	4295	4295	4349	4295	4295	4241	4241	4190	4190	4089	4089	4041	4041	4041	4041	4041	4089	4089	4139	4139	4190	4190	4190	4190	4190	4190	4190	4190	813	807	805	805	803	800	796	792	790	787	785	783	781	780	780	778	776	776	776	776	776	778	778	778	778	778	780	778	778	774	774	774	776	778	780	780	781	783	785	787	789	790	796	798	800	803	809	811	817	817	805	805	854	0	0	0	0	0	0	0	0	0	0	0	0	0	0	2198	2198	2212	2198	2184	2184	2170	2170	2170	2170	2156	2129	2129	2103	2103	2090	2078	2065	2065	2053	2053	2053	2040	2040	
4295	4295	4349	4295	4295	4241	4241	4190	4190	4139	4089	4089	4041	4041	4041	4041	4041	4089	4089	4139	4190	4190	4190	4190	4190	4190	4190	4190	4190	4190	811	805	805	803	802	798	792	790	789	787	785	783	781	781	780	778	778	776	776	776	778	778	778	778	778	780	780	780	776	776	776	778	778	780	781	783	785	787	789	790	792	796	802	803	807	811	817	817	849	849	851	854	0	0	0	0	0	0	0	0	0	0	0	0	0	0	2198	2198	2212	2198	2184	2184	2170	2170	2170	2156	2156	2129	2116	2116	2103	2090	2078	2065	2053	2053	2053	2053	2040	2040	
4295	4349	4349	4295	4241	4241	4190	4190	4139	4139	4089	4089	4089	4089	4089	4089	4089	4089	4089	4139	4139	4190	4190	4190	4190	4190	4241	4190	4190	4241	811	809	807	803	803	800	794	792	789	787	785	783	781	781	780	778	778	776	776	776	778	778	778	778	778	780	780	781	778	778	778	778	780	780	781	785	787	787	790	792	794	796	802	807	809	815	823	823	849	849	851	854	0	0	0	0	0	0	0	0	0	0	0	0	0	0	2226	2184	2184	2170	2170	2170	2170	2170	2170	2156	2143	2116	2116	2103	2103	2090	2078	2065	2053	2053	2053	2053	2040	2040	
4295	4349	4349	4295	4241	4241	4190	4190	4139	4139	4089	4089	4089	4089	4139	4139	4139	4089	4089	4139	4139	4190	4190	4190	4241	4241	4241	4241	4241	4241	811	811	809	805	803	800	796	792	790	789	785	783	781	781	781	780	778	778	778	778	778	778	778	778	778	780	781	781	780	780	780	780	780	781	783	785	787	789	792	794	796	800	807	811	813	821	825	835	845	849	854	860	0	0	885	885	885	885	0	0	0	0	0	0	0	0	0	2184	2184	2170	2170	2170	2170	2170	2170	2143	2129	2116	2103	2103	2103	2090	2078	2078	2053	2053	2053	2053	2040	2028	
4295	4349	4295	4295	4295	4241	4190	4190	4190	4139	4139	4089	4089	4139	4139	4139	4139	4139	4139	4139	4139	4190	4190	4190	4241	4241	4241	4241	4241	4241	4241	813	809	805	803	800	798	794	790	789	783	783	781	781	781	780	778	778	778	778	778	778	778	780	780	781	781	781	781	781	781	781	781	785	785	787	789	790	794	798	800	805	811	817	819	825	827	835	845	849	854	860	867	882	882	885	882	882	885	0	0	0	0	0	0	0	0	0	0	2170	2170	2170	2170	2170	2156	2143	2129	2116	2103	2103	2090	2090	2078	2078	2053	2053	2053	2040	2040	2028	
4295	4349	4295	4295	4295	4241	4241	4241	4241	4241	4139	4139	4139	4139	4139	4139	4139	4139	4139	4139	4139	4190	4190	4190	4241	4241	4241	4241	4241	4241	4241	4241	4241	805	803	802	798	794	790	789	783	781	781	780	780	780	778	778	778	778	780	780	780	780	781	781	781	783	781	781	781	783	785	787	789	790	792	794	798	802	803	809	815	819	823	825	827	841	845	849	854	860	867	869	869	878	878	878	885	0	0	0	0	0	0	0	0	0	0	0	2156	2156	2170	2156	2156	2143	2129	2116	2103	2103	2090	2090	2078	2078	2065	2053	2053	2040	2040	2040	
4295	4295	4349	4349	4295	4295	4295	4241	4241	4241	4139	4139	4139	4139	4139	4139	4139	4139	4139	4190	4190	4190	4241	4241	4241	4241	4241	4241	4241	4241	4241	4241	4241	4241	4190	800	798	794	790	789	783	781	781	780	780	780	778	778	778	780	780	781	781	781	781	781	783	783	783	783	785	787	789	790	792	794	794	798	802	803	807	813	817	821	825	827	835	841	845	849	851	854	854	856	858	860	869	869	0	0	0	0	0	0	0	0	0	0	0	0	2156	2156	2156	2156	2156	2143	2129	2103	2103	2103	2090	2090	2078	2078	2065	2053	2053	2053	2040	2040	
4295	4295	4349	4295	4295	4295	4241	4241	4241	4241	4139	4139	4139	4089	4089	4089	4089	4089	4139	4190	4190	4190	4241	4241	4241	4241	4241	4241	4241	4241	4241	4241	4241	4241	4190	800	798	794	790	789	785	783	781	781	780	780	778	778	778	780	781	781	781	781	783	783	783	785	785	785	787	789	792	794	796	798	800	802	805	809	815	819	823	825	827	833	839	841	845	847	849	851	851	854	856	858	862	867	0	0	0	0	0	0	0	0	0	0	0	0	0	2156	2156	2156	2156	2143	2129	2103	2103	2103	2090	2090	2065	2065	2065	2053	2053	2053	2040	2040	
4295	4295	4349	4295	4295	4295	4241	4241	4241	4241	4139	4139	4089	4089	4089	4089	4089	4089	4139	4190	4190	4190	4190	4241	4241	4241	4241	4241	4241	4241	4241	4241	4241	4241	4190	800	798	796	792	789	787	785	783	783	781	781	781	781	781	781	781	781	783	783	783	783	785	787	789	789	790	792	794	796	798	802	803	807	809	813	817	823	825	827	831	837	841	843	843	847	847	849	849	851	851	856	860	864	864	864	0	0	0	0	0	0	0	0	0	0	0	2156	2156	2156	2156	2143	2129	2116	2103	2103	2090	2090	2065	2065	2053	2053	2053	2053	2040	2040	
4295	4295	4295	4349	4295	4295	4241	4241	4241	4241	4139	4089	4089	4041	4041	4089	4089	4089	4139	4190	4190	4190	4190	4241	4241	4241	4241	4241	4241	4241	4241	4241	4241	4190	4190	4190	800	798	796	792	789	787	785	785	785	783	783	781	781	781	781	781	783	783	785	787	789	789	790	790	792	794	796	800	803	805	809	811	815	819	823	825	827	831	835	835	839	841	843	845	845	845	845	847	849	851	860	864	864	864	0	0	0	0	0	0	0	0	0	0	0	0	2156	2156	2156	2143	2129	2116	2103	2090	2090	2078	2078	2065	2053	2053	2053	2040	2040	2040	
4295	4295	4295	4295	4349	4295	4295	4241	4241	4241	4139	4089	4089	4041	4041	4089	4089	4089	4190	4190	4190	4190	4190	4241	4241	4241	4241	4241	4241	4241	4241	4241	4241	4190	4190	4190	4190	800	798	796	792	789	789	789	787	787	787	785	785	785	785	785	785	785	787	789	792	792	796	796	798	800	802	803	807	809	815	817	821	825	827	827	829	833	835	835	839	841	843	843	841	841	841	843	845	849	854	860	864	867	869	873	0	0	0	0	0	0	0	0	0	0	2156	2156	2143	2129	2129	2116	2103	2090	2090	2078	2078	2065	2053	2053	2053	2040	2040	2028	
4295	4295	4295	4295	4349	4295	4295	4241	4241	4241	4139	4089	4089	4041	4041	4139	4139	4139	4190	4190	4190	4190	4190	4241	4241	4241	4241	4241	4241	4241	4241	4241	4241	4241	4241	4190	1696	1696	800	798	796	790	790	790	790	790	789	787	787	787	787	787	790	792	792	796	796	798	802	802	803	803	805	809	811	815	819	821	825	825	827	829	831	833	835	835	839	841	841	839	839	839	841	841	843	845	849	851	854	860	864	860	860	0	0	0	0	0	0	0	0	0	0	0	2143	2116	2116	2103	2103	2103	2090	2090	2078	2065	2053	2053	2053	2040	2040	2028	
4295	4295	4295	4295	4295	4295	4241	4241	4190	4190	4139	4089	4089	4041	4041	4139	4139	4190	4190	4190	4190	4190	4190	4241	4241	4241	4295	4295	4295	4295	4241	4241	4241	4241	4241	1696	1696	1688	1688	1696	1696	1696	1705	817	817	792	792	792	803	803	802	800	798	798	798	798	800	802	803	803	805	805	807	811	817	821	823	825	827	827	829	831	831	833	835	835	839	839	839	837	837	837	837	839	841	843	847	849	854	856	860	860	860	0	0	0	0	0	0	0	0	0	0	0	0	2116	2116	2103	2090	2090	2090	2078	2078	2078	2053	2053	2053	2040	2028	2028	
4295	4295	4295	4295	4295	4241	4241	4241	4190	4190	4139	4089	4089	4041	4041	4139	4139	4190	4190	4190	4190	4190	4190	4190	4241	4241	4241	4241	4295	4295	4295	4295	4241	1696	1688	1688	1680	1680	1680	1688	1688	1705	1705	817	817	809	809	809	809	807	805	803	800	800	800	800	802	805	805	805	809	827	825	825	827	827	827	827	829	829	831	831	831	833	835	835	837	835	835	833	833	835	835	837	839	843	845	847	849	851	854	854	858	867	0	0	0	0	0	0	0	0	0	0	0	0	0	2103	2090	2090	2090	2078	2078	2078	2053	2053	2053	2040	2028	2028	
4295	4295	4295	4295	4241	4241	4241	4241	4190	4190	4139	4089	4089	4089	4089	4139	4190	4190	4190	4190	4190	4190	4190	4190	4241	4241	4241	4241	4241	4349	4349	1680	1680	1680	1680	1680	1680	1680	1680	1680	1680	1705	1705	1705	821	821	817	813	811	811	807	805	803	803	831	803	803	807	813	829	829	827	827	827	827	827	827	827	829	829	831	831	833	833	835	833	833	831	831	831	831	833	833	835	837	841	843	845	847	847	847	849	851	851	856	856	856	858	862	0	0	0	0	0	0	0	0	0	0	2090	2090	2078	2065	2065	2065	2053	2053	2040	2028	2028	
4295	4295	4295	4295	4241	4241	4190	4190	4139	4139	4089	4089	4089	4089	4089	4139	4190	4190	4190	4190	4190	4190	1671	1663	1663	1663	1671	1680	1688	1680	1671	1671	1671	1671	1671	1671	1671	1671	1671	1671	946	946	946	860	827	827	827	825	825	825	823	823	825	825	829	831	831	831	829	829	829	829	827	827	827	827	827	829	829	829	831	831	833	833	833	833	827	827	827	827	829	831	831	833	837	839	841	841	843	839	839	839	839	847	851	854	854	856	860	0	0	0	0	0	0	0	0	0	0	0	2090	2078	2065	2065	2065	2053	2040	2040	2028	2028	
4295	4295	4295	4295	4241	4241	4190	4190	4139	4139	4089	4089	4089	4089	4089	4139	4190	4190	4190	4190	4190	1696	1671	1663	1663	1663	1671	1671	1680	1680	1671	1671	1671	1671	1663	1663	1671	1671	1671	943	943	943	943	860	854	839	837	833	831	829	829	829	829	829	829	831	831	831	829	829	829	827	827	827	827	827	829	829	829	829	831	831	833	833	831	829	825	823	823	825	827	827	831	833	835	837	839	839	839	837	837	837	839	843	849	851	851	845	845	0	0	0	0	0	0	0	0	0	0	0	0	2078	2065	2065	2065	2053	2040	2040	2040	2028	
4295	4295	4295	4295	4241	4241	4241	4241	4190	4190	4089	4089	4089	4089	4089	4139	4139	4139	4190	4190	1696	1696	1688	1680	1671	1671	1671	1671	1671	1671	1671	1663	1663	1663	1663	1663	1663	1663	938	938	940	940	869	860	854	843	839	837	835	833	833	831	831	831	833	833	833	833	831	831	829	827	827	827	827	827	829	829	829	829	831	831	831	831	827	825	821	821	821	823	825	827	827	831	833	835	837	837	835	833	833	835	835	839	845	843	843	841	841	0	0	0	0	0	0	0	0	0	0	0	0	0	0	2065	2053	2040	2040	2040	2040	2028	
4295	4295	4295	4295	4295	4241	4241	4241	4190	4190	4089	4089	4089	4089	4089	4139	4139	4139	4190	4139	1696	1696	1688	1680	1671	1663	1663	1663	1663	1663	1663	1663	1663	1663	1663	1663	1663	1663	935	935	935	938	869	862	858	851	843	837	835	833	833	833	833	833	833	833	833	833	831	831	831	827	827	827	827	827	827	827	827	829	829	829	829	827	825	821	819	819	819	821	823	825	827	827	831	831	831	829	827	827	829	833	835	837	837	837	839	837	837	0	0	0	827	827	827	829	0	0	0	0	0	0	0	0	2053	2040	2040	2040	2040	2028	
4295	4295	4295	4295	4295	4241	4241	4241	4190	4190	4139	4139	4139	4139	4139	4139	4139	4139	4139	4139	1696	1696	1696	1680	1663	1655	1655	1655	1663	1663	1663	1663	1663	1663	1663	1663	1663	928	928	930	933	935	869	864	860	851	845	841	837	837	835	835	835	835	835	835	833	833	831	829	829	827	827	827	827	827	827	827	827	829	829	827	825	819	817	817	817	817	817	819	821	825	825	827	827	827	827	823	823	825	827	831	833	833	833	833	833	831	827	823	823	825	825	825	827	827	827	829	0	0	0	0	0	0	0	0	2040	2040	2040	2040	
4295	4295	4295	4295	4295	4241	4241	4241	4241	4190	4139	4139	4190	4190	4139	4139	4139	4139	4139	4139	1696	1696	1696	1688	1663	1655	1655	1655	1663	1663	1655	1655	1655	1663	1655	1655	1663	928	928	928	928	930	869	864	860	854	847	843	841	839	837	837	837	837	835	835	833	833	831	829	829	827	827	827	827	827	827	827	829	827	827	825	819	815	813	813	815	815	817	819	819	823	825	825	825	823	823	819	819	821	825	827	831	831	831	829	825	825	825	821	821	823	823	823	823	825	825	827	829	0	0	0	0	0	0	0	0	0	0	0	
4295	4295	4295	4295	4295	4241	4241	4241	4241	4190	4190	4190	4190	4139	4139	4139	4139	4139	4139	4139	1705	1705	1705	1696	1663	1655	1655	1655	1655	1655	1647	1639	1639	1655	1655	1655	925	925	925	925	925	928	869	867	862	858	851	845	843	841	839	837	837	837	837	837	835	833	831	829	829	827	827	827	827	827	827	827	827	827	825	821	815	813	813	813	813	813	815	819	819	821	821	821	821	817	817	817	817	821	825	827	829	827	827	825	821	821	819	819	819	819	819	817	817	819	819	821	829	0	0	0	0	0	0	0	0	0	0	0	
4295	4295	4241	4241	4241	4241	4241	4241	4241	4190	4190	4139	4139	4139	4089	4089	4089	4089	4139	4139	1713	1705	1705	1696	1663	1655	1655	1655	1655	1647	1647	981	981	984	984	987	918	918	920	923	925	925	869	869	862	858	854	851	847	843	841	839	839	839	837	837	835	835	831	831	829	827	827	827	827	827	827	827	827	825	821	815	813	811	811	811	811	813	815	817	819	819	819	817	817	813	813	813	815	817	825	827	827	825	821	817	817	813	813	813	811	811	809	809	809	809	803	803	805	807	807	0	0	0	0	0	0	0	0	0	
4295	4295	4241	4241	4241	4241	4241	4241	4241	4190	4139	4089	4089	4089	4089	4089	4089	4089	4139	4139	1722	1705	1705	1680	1647	1007	1001	1001	970	970	981	981	981	981	981	984	915	915	918	920	923	925	869	869	862	860	856	851	849	845	843	841	841	839	837	837	835	835	833	831	829	829	829	827	827	827	829	827	825	823	811	811	811	809	809	811	811	811	813	815	817	817	817	813	811	811	811	811	815	817	825	825	825	821	815	811	811	811	809	809	807	805	803	802	802	800	800	802	802	803	802	802	800	800	800	0	0	0	0	0	
4295	4295	4241	4241	4241	4241	4241	4241	4190	4190	4089	4089	4089	4041	4041	4089	4089	4089	4139	4190	1722	1705	1705	998	998	1001	998	992	970	970	978	978	978	978	978	910	910	910	915	920	923	928	869	869	864	860	858	854	851	849	845	843	841	839	837	837	837	835	833	831	831	829	829	829	829	829	829	827	825	809	807	807	807	809	809	809	811	811	811	813	813	813	811	809	807	807	809	811	819	821	823	819	819	817	811	809	809	807	807	805	803	800	798	796	796	796	796	796	796	798	798	798	796	796	794	794	0	0	0	0	
4295	4295	4295	4295	4295	4241	4241	4241	4190	4190	4089	4089	4041	4041	4041	4089	4089	4089	4139	998	998	995	995	995	995	992	992	989	981	978	978	975	975	973	906	906	908	910	915	920	925	925	871	869	864	862	860	854	851	851	847	843	841	839	837	837	835	835	833	831	831	829	829	829	831	829	829	825	809	807	807	807	807	807	807	809	809	809	809	811	809	809	807	805	805	805	805	813	819	819	819	817	817	809	807	807	807	807	805	803	800	796	796	794	794	794	792	790	790	790	790	792	792	792	792	792	0	0	0	0	
4241	4295	4295	4295	4295	4241	4241	4241	4190	4190	4089	4089	4041	4041	4089	4089	4089	4139	1004	998	998	995	992	992	989	989	987	981	975	973	973	970	967	967	903	903	906	908	910	920	923	920	920	871	864	862	860	854	851	849	847	843	841	839	837	837	835	835	833	831	831	829	827	827	829	829	829	807	803	803	805	805	805	807	807	809	809	809	809	809	807	807	802	802	802	803	805	813	817	819	817	815	805	803	803	803	803	803	802	800	794	794	792	792	790	789	789	787	785	785	785	785	787	787	787	787	778	778	780	780	
4241	4241	4295	4295	4295	4295	4295	4241	4190	4190	4139	4089	4089	4089	4089	4089	995	995	1001	998	995	992	989	989	984	981	973	970	970	967	967	962	959	959	898	898	903	906	908	913	913	906	906	878	862	862	860	854	851	849	847	845	843	841	837	837	837	835	831	831	829	829	827	827	827	829	803	803	803	803	803	803	803	805	805	803	803	805	807	807	803	802	798	798	798	803	807	811	813	813	813	811	803	803	803	802	802	800	792	789	789	789	790	789	789	787	785	783	781	781	781	781	781	781	781	780	778	778	778	778	
4241	4241	4295	4295	4295	4295	4295	4241	4190	4190	4139	4139	4139	4139	4139	992	992	995	995	995	992	989	984	981	975	973	967	967	964	962	956	956	956	956	896	896	898	901	908	910	910	903	891	887	862	862	860	858	851	851	849	845	845	843	837	837	835	835	831	831	829	829	827	827	827	829	802	802	802	802	802	802	803	803	803	803	803	803	803	803	800	798	796	796	796	803	809	811	811	809	807	802	800	800	800	798	796	792	789	787	787	787	787	787	783	781	781	778	778	778	778	778	776	774	774	774	774	774	776	776	
4241	4241	4295	4295	4295	4295	4241	4241	4241	4241	4190	4190	4190	4139	4139	989	989	989	989	987	981	978	975	973	970	970	964	964	959	951	948	946	946	889	889	891	894	898	901	906	906	898	891	887	878	862	860	858	854	851	849	847	845	843	837	837	835	835	831	831	829	829	827	827	827	802	802	802	802	802	802	802	802	802	802	802	802	802	802	800	796	794	794	796	796	805	809	809	807	803	800	798	798	798	798	796	794	789	785	783	783	785	785	781	780	778	776	774	774	774	773	767	767	767	767	767	769	769	771	771	
4241	4241	4295	4295	4295	4241	4241	4241	4241	4241	4190	4190	4139	989	987	987	987	984	981	978	978	973	973	970	967	964	959	956	951	946	943	943	943	889	889	889	891	896	898	903	901	896	891	885	878	864	862	858	854	851	851	849	845	843	839	837	837	835	833	831	829	829	827	827	800	800	798	798	800	800	800	800	800	800	800	800	798	796	796	796	794	794	794	796	800	805	807	807	803	802	798	796	796	796	796	794	789	781	781	781	781	783	781	776	774	774	774	773	771	767	766	764	764	764	764	764	764	764	764	764	
4241	4295	4295	4295	4295	4190	4190	4241	4241	4241	4190	4139	4139	984	984	981	981	978	975	973	970	967	967	964	962	959	951	946	940	940	938	938	938	887	887	887	889	891	896	898	898	896	891	882	875	869	862	860	856	854	851	849	845	843	839	837	837	835	833	831	831	829	829	798	798	798	796	796	796	796	796	796	798	798	796	796	792	790	787	785	785	792	796	800	802	803	803	803	802	800	796	794	794	794	792	789	781	780	780	780	781	780	776	774	773	773	771	767	764	764	762	761	761	761	761	761	759	759	759	761	
4241	4241	4295	4295	4241	4190	4190	4190	4190	4241	4139	4139	4139	981	981	978	975	973	970	970	967	967	964	959	959	951	943	938	938	935	930	930	933	887	885	885	887	889	891	896	896	894	887	880	875	869	862	860	856	854	851	847	845	843	839	837	837	835	833	833	831	829	829	796	796	796	796	796	796	796	796	796	796	796	794	790	790	789	781	781	783	792	796	800	802	802	802	802	798	794	790	790	790	790	789	785	780	778	778	780	780	776	774	773	771	769	766	761	761	759	759	759	757	757	755	755	755	755	755	757	
4241	4241	4241	4190	4190	4139	4139	4139	4190	4190	4089	4089	978	978	975	973	970	967	964	962	962	959	959	956	954	940	938	935	930	928	925	925	933	885	880	880	882	882	887	891	891	889	882	878	875	869	864	860	856	854	851	847	845	843	839	837	837	835	833	833	833	831	794	794	794	794	794	794	794	794	794	794	794	790	789	787	787	774	774	776	783	792	796	800	800	800	798	798	794	790	789	789	789	787	787	781	778	776	776	778	774	773	771	769	767	764	762	759	759	757	757	757	755	754	752	752	752	754	754	754	
4241	4241	4241	4190	4190	4139	4139	4089	4089	4089	4089	4089	970	970	970	967	962	959	959	956	956	956	956	954	935	930	930	928	925	925	925	925	925	880	878	878	878	878	880	885	889	887	882	878	873	869	867	860	856	854	851	847	845	843	841	837	837	835	833	833	794	794	794	794	794	794	794	794	794	792	792	794	792	789	785	774	773	773	774	776	783	792	794	796	796	796	796	794	789	787	787	787	787	785	783	774	774	774	774	774	773	771	769	767	762	761	759	757	755	755	754	754	752	752	750	750	750	750	750	750	
4241	0	0	0	0	0	0	4089	4089	4089	4089	967	967	964	964	959	954	954	954	951	951	951	951	946	928	925	925	925	920	918	918	918	869	869	869	871	873	875	878	878	880	880	880	873	871	869	867	862	856	851	849	847	845	843	839	837	837	837	833	833	794	794	794	794	792	792	792	792	792	792	792	792	790	773	771	771	769	769	774	790	790	790	794	794	794	792	790	789	787	785	785	785	785	781	778	771	771	771	773	771	767	766	766	762	757	757	757	754	754	754	752	752	750	750	749	747	747	749	747	747	
0	0	0	0	0	0	0	0	0	962	962	962	962	959	956	951	948	948	948	946	946	943	920	920	920	920	920	920	910	908	903	903	903	867	867	867	869	869	873	873	873	875	875	871	871	869	864	858	854	851	847	845	845	843	839	837	837	800	796	794	794	794	794	792	790	790	789	789	787	787	787	787	773	767	767	769	769	769	789	789	790	790	792	792	790	790	789	785	783	783	783	783	780	774	767	767	767	767	769	767	766	764	762	759	755	754	754	752	752	750	749	749	747	747	746	746	746	746	744	744	
0	0	0	0	0	0	0	0	0	967	959	959	959	956	948	946	943	943	943	940	940	935	920	918	918	915	913	903	901	898	894	871	869	867	867	862	862	867	869	869	871	871	871	871	869	864	862	858	854	851	847	845	845	843	841	837	800	798	794	794	794	794	792	790	789	787	785	783	781	780	780	787	773	766	766	766	766	769	789	789	789	789	790	790	789	787	785	781	781	781	780	780	776	771	766	766	766	767	767	766	762	761	759	754	752	752	752	750	750	747	746	746	744	744	744	744	744	742	741	739	
0	0	0	0	0	0	0	0	0	962	956	954	954	948	943	940	938	938	938	938	935	933	920	918	915	913	903	901	898	894	873	867	864	862	860	860	860	860	860	862	867	867	867	867	867	864	858	854	854	851	847	845	845	845	803	798	798	796	794	792	792	792	792	790	789	785	783	781	781	780	780	780	802	766	766	766	766	789	789	789	789	789	789	787	787	785	781	780	780	778	776	776	773	764	762	762	764	764	766	764	761	761	755	752	750	750	750	747	747	746	744	744	742	742	741	741	741	739	738	738	
0	0	0	0	0	0	0	0	959	959	956	951	946	940	938	938	935	935	935	935	933	925	918	915	915	910	901	898	896	894	871	860	860	860	858	854	851	849	849	854	856	860	862	862	862	860	856	854	854	854	847	802	802	802	802	798	798	796	792	792	792	787	787	790	789	781	781	780	780	780	780	800	798	798	798	796	790	787	787	787	787	785	785	783	783	781	780	778	776	774	774	773	771	761	761	761	761	762	762	761	759	757	754	750	749	749	747	746	744	744	742	742	741	741	739	738	738	738	736	736	
0	0	0	0	0	0	0	0	956	956	954	946	940	938	935	935	935	935	933	930	920	918	915	915	915	908	901	898	896	894	871	851	851	851	849	847	847	847	847	845	845	847	851	856	858	858	854	854	805	803	800	800	800	800	802	803	803	796	792	792	792	787	787	790	789	781	781	780	780	798	798	798	796	796	796	792	787	785	785	787	785	785	783	781	781	780	778	776	774	773	773	771	764	759	759	759	761	761	761	759	757	754	750	747	747	746	746	744	744	742	742	741	739	738	736	734	734	734	734	734	
0	0	0	0	0	0	0	0	951	951	948	943	938	935	933	933	930	928	928	923	918	915	915	913	910	906	901	898	896	894	845	845	847	845	843	841	841	841	841	841	841	843	847	854	858	858	854	803	800	800	798	798	798	800	805	805	819	821	819	813	811	811	809	807	803	803	803	802	800	798	796	796	794	794	792	789	785	783	783	783	783	783	781	781	780	778	776	774	773	771	771	769	761	757	757	759	759	761	759	757	755	750	747	746	746	744	744	744	742	739	739	738	738	734	733	733	733	733	734	734	
0	0	0	0	0	0	0	948	948	948	943	938	933	930	928	928	928	925	923	918	915	913	910	908	906	903	898	896	896	894	843	843	843	841	839	839	837	837	837	837	837	839	841	847	854	856	851	803	800	800	798	798	798	800	819	819	819	821	815	811	811	809	807	805	803	803	803	802	798	796	794	794	794	794	790	787	783	781	781	781	781	781	780	780	774	774	774	771	771	769	767	766	755	755	755	755	757	759	755	755	754	750	744	742	742	742	742	742	739	738	736	734	731	731	731	731	733	733	734	733	
0	0	0	0	0	0	948	946	946	943	938	935	930	928	925	925	925	925	920	915	910	908	908	903	901	898	896	896	894	891	843	839	837	837	835	833	831	831	831	831	833	835	839	843	849	854	815	807	803	800	798	798	798	823	821	821	819	819	813	811	809	807	805	803	802	802	802	798	796	794	794	792	790	789	785	781	780	780	780	778	778	778	778	774	773	773	769	769	767	767	766	759	754	754	754	754	755	755	754	754	752	747	741	741	741	741	739	739	736	734	731	730	730	730	730	731	733	733	733	731	
0	0	0	0	0	0	948	946	943	940	935	933	928	923	923	923	920	920	913	908	906	906	903	901	898	896	896	891	891	887	880	839	837	833	831	829	827	827	827	829	829	831	833	835	849	821	815	811	811	821	823	825	825	823	823	819	817	813	811	809	807	807	803	802	800	798	798	796	794	792	792	789	787	783	780	776	776	776	776	774	774	774	774	771	771	767	767	766	766	766	761	755	752	752	752	752	752	752	752	752	750	741	739	739	739	738	736	734	733	731	728	728	728	728	730	731	733	733	731	730	
0	0	0	0	0	0	940	940	940	938	933	930	920	920	918	918	918	910	906	903	903	903	898	896	891	891	891	889	885	880	878	873	871	833	831	825	823	823	823	823	825	827	829	829	821	821	819	819	819	821	823	823	823	821	819	817	813	811	809	807	803	803	802	802	798	796	794	794	792	790	789	787	783	780	776	774	774	774	774	774	774	773	773	769	767	766	766	764	762	762	759	754	749	749	749	749	749	750	752	752	749	739	738	738	736	736	734	731	730	728	727	727	727	728	728	731	731	731	730	728	
0	0	0	0	0	0	935	935	938	938	930	920	918	918	915	915	913	906	903	901	898	896	894	891	889	889	887	885	882	878	875	873	869	869	864	825	823	821	821	823	823	823	825	827	821	821	821	821	823	823	823	823	823	819	819	813	813	811	807	805	803	803	802	798	794	794	792	790	790	789	787	783	781	778	776	774	774	774	773	773	771	769	769	767	766	764	764	762	761	759	757	752	749	747	747	747	747	749	749	749	744	736	734	734	734	733	733	728	727	727	727	727	727	728	728	730	730	728	727	727	
0	0	0	0	0	0	933	933	935	935	928	918	915	915	913	910	906	901	898	896	896	891	889	887	887	885	882	880	878	878	873	871	869	864	862	860	858	821	821	821	821	821	821	823	823	823	821	821	823	823	823	821	819	817	815	813	811	809	805	803	802	802	798	796	792	792	790	789	787	787	783	780	776	776	774	773	773	773	771	771	769	767	766	766	762	761	761	759	759	757	754	749	747	746	746	746	747	747	747	746	744	733	733	733	733	730	730	725	725	725	725	727	727	728	728	728	727	725	725	723	
0	0	0	0	0	0	933	933	933	933	928	915	913	910	908	906	903	898	898	896	891	889	887	887	885	882	880	878	875	875	871	871	867	862	860	854	851	847	821	819	819	817	817	819	821	821	821	821	821	821	821	819	817	815	813	811	811	809	803	802	800	800	796	792	789	789	789	787	787	785	780	778	774	773	773	771	771	769	769	767	766	766	764	762	761	759	757	754	754	754	750	747	746	744	744	744	746	746	746	746	739	731	730	730	730	727	725	722	722	722	723	725	727	727	728	727	725	723	722	720	
0	0	0	0	0	0	930	930	930	930	925	908	908	908	908	903	898	896	896	891	889	887	885	882	880	880	878	875	873	873	871	867	862	860	856	854	849	845	821	815	813	813	813	817	819	819	819	819	819	819	819	817	815	813	811	811	809	807	802	800	798	796	794	790	789	789	789	785	783	781	778	776	773	773	769	769	767	767	766	766	762	761	761	761	759	755	752	752	752	752	749	746	742	741	741	741	742	744	746	744	739	730	728	728	727	723	723	722	722	722	723	725	725	725	725	723	722	720	719	717	
0	0	0	0	0	0	930	928	928	925	915	908	906	906	906	898	896	896	894	889	887	885	880	880	878	875	873	871	869	869	864	862	860	858	854	851	847	843	841	815	811	811	813	815	817	819	819	819	819	817	817	813	811	811	809	809	809	807	802	798	796	794	792	789	789	787	787	783	781	780	776	773	771	769	769	767	767	766	766	764	761	759	759	759	755	754	752	750	750	749	747	744	742	741	741	741	741	742	742	744	725	725	727	727	725	722	722	720	720	722	723	723	722	722	720	720	719	717	717	716	
0	0	0	0	0	930	928	928	923	920	910	906	906	906	901	898	894	891	889	887	882	880	878	875	873	871	871	869	867	867	862	860	858	856	851	847	843	841	839	839	805	805	811	813	815	817	817	815	815	813	813	811	811	811	809	809	807	803	800	796	796	794	792	787	785	785	783	781	780	776	773	769	767	767	766	766	766	764	762	761	759	757	757	757	754	752	749	749	749	747	746	742	739	739	739	739	739	741	741	741	725	725	725	725	723	722	722	720	720	722	723	723	720	720	719	719	717	716	716	714	
0	0	0	0	940	928	925	923	920	915	908	903	903	901	898	894	891	889	887	880	880	878	875	871	871	869	869	867	864	864	860	860	856	851	849	845	843	841	837	837	805	805	811	813	813	815	813	813	813	811	811	811	809	809	807	805	803	802	796	792	792	790	789	785	783	783	781	780	778	773	769	767	766	766	766	764	761	761	759	757	757	757	755	752	750	749	747	747	746	744	742	741	738	738	738	738	739	739	739	739	725	725	723	723	722	720	720	720	720	722	722	720	719	719	717	717	716	714	714	714	
0	0	0	938	933	928	925	923	918	913	906	901	901	898	896	891	887	885	882	878	878	875	873	871	871	869	867	864	862	860	860	856	854	849	845	843	839	839	835	835	835	813	811	811	813	813	813	811	811	811	811	811	809	809	805	805	802	800	794	790	789	789	785	781	781	781	780	778	774	769	767	766	766	764	762	762	759	759	757	755	755	754	752	749	749	747	746	744	744	741	741	739	738	738	736	736	738	739	738	738	722	722	722	722	720	720	720	720	720	720	719	717	717	717	717	716	716	714	714	713	
0	0	938	938	928	923	920	918	915	908	901	901	898	898	894	887	885	880	880	878	875	873	871	869	869	864	862	862	860	860	858	854	849	845	843	841	837	837	835	831	829	815	811	811	811	811	811	811	809	809	807	807	807	805	803	802	800	798	792	789	787	785	781	781	780	780	776	773	769	767	766	764	762	762	761	759	757	755	754	754	754	752	749	747	746	744	742	741	741	741	741	738	736	736	734	734	736	738	738	738	719	719	720	719	719	719	720	720	719	716	714	714	714	714	714	713	713	713	711	711	
0	0	938	938	923	920	918	915	913	906	901	898	896	894	887	885	880	878	878	875	873	871	871	867	864	862	860	858	858	856	854	854	849	845	843	839	837	835	833	829	827	813	811	809	809	811	811	809	809	809	807	805	805	803	803	802	798	794	790	787	785	783	780	780	778	776	774	771	767	766	764	762	761	759	759	755	754	754	752	752	750	749	747	744	744	742	741	741	739	739	739	736	734	733	733	733	734	734	736	736	717	717	717	717	717	719	720	719	716	714	713	713	713	713	711	711	711	710	708	708	
938	938	938	935	920	918	915	913	910	903	898	896	894	889	885	882	878	875	873	871	871	871	869	864	864	862	858	856	854	854	854	849	847	843	839	837	835	835	831	827	821	813	809	809	809	809	809	809	807	807	805	805	803	802	800	798	796	792	787	785	781	781	780	778	776	774	771	767	766	764	762	761	759	755	755	752	752	750	749	749	747	747	746	744	742	741	739	739	739	736	736	734	733	733	733	733	733	734	734	734	716	716	716	716	716	717	720	717	714	713	711	711	711	710	710	708	708	708	708	708	
1197	938	935	930	920	915	913	913	910	903	898	896	891	887	882	880	878	873	871	871	869	867	867	862	862	860	854	854	854	851	851	847	843	843	837	837	835	833	827	823	819	813	809	807	807	807	807	807	805	805	803	803	802	800	798	794	792	789	787	781	781	780	778	774	774	773	769	766	764	762	761	759	757	754	754	752	750	750	749	747	747	746	742	741	741	741	739	739	736	734	734	733	731	730	730	730	733	733	733	733	716	714	714	716	716	717	720	716	711	710	710	708	708	708	708	707	707	706	706	707	
933	933	930	928	918	915	913	910	908	901	896	891	889	885	880	878	875	871	869	869	869	864	862	860	860	856	854	851	851	851	849	845	843	839	837	835	833	829	825	821	817	813	807	807	805	805	805	805	805	805	803	802	800	798	794	792	790	789	783	781	780	778	774	773	771	769	766	762	762	761	759	757	754	752	752	749	749	747	747	746	746	744	741	739	739	739	738	736	734	734	733	731	730	728	728	728	730	730	730	720	716	714	714	716	716	719	720	714	710	708	708	707	707	707	707	707	707	706	706	706	
930	930	930	923	918	913	910	910	906	901	896	891	887	882	880	875	871	869	869	867	864	862	860	858	856	854	851	851	851	847	845	843	839	837	837	835	833	827	821	819	815	811	807	805	805	805	805	805	805	803	802	800	796	794	792	790	789	787	783	780	776	774	773	771	769	766	762	761	761	759	757	754	752	750	750	749	747	746	746	744	742	741	738	738	738	736	736	733	733	731	731	730	728	728	728	728	728	728	727	719	714	714	714	714	716	719	720	714	708	707	707	706	706	704	704	704	704	704	704	704	
928	928	923	920	915	913	910	908	903	896	891	889	885	880	878	873	871	869	867	864	862	860	858	856	854	851	851	849	847	845	843	841	839	837	835	833	829	825	819	817	813	807	807	805	805	805	803	803	803	803	802	798	796	792	790	789	789	783	781	778	774	773	771	769	767	764	761	759	759	757	754	752	750	750	750	747	746	746	744	742	741	739	738	734	734	734	734	731	731	730	728	728	727	727	727	727	727	727	725	717	714	713	713	714	716	719	720	716	706	704	704	704	703	703	704	704	704	703	703	703	
923	923	920	918	915	910	910	906	901	894	889	887	882	878	875	871	869	869	867	862	860	858	856	854	854	851	849	847	845	843	841	839	837	835	833	831	827	821	819	817	809	803	803	803	805	805	803	803	803	802	798	796	792	790	789	783	783	781	780	774	773	771	769	767	766	762	759	759	757	754	750	749	749	749	747	747	746	744	742	741	738	738	736	733	733	733	731	728	728	728	728	727	727	727	727	727	727	723	719	714	713	713	713	716	717	720	719	717	703	703	703	703	703	703	703	703	701	701	701	701	
920	920	918	915	913	908	908	906	894	891	887	887	882	875	871	871	869	867	862	860	858	856	854	851	851	849	845	845	843	841	839	837	835	833	829	829	825	819	819	817	805	803	802	802	803	803	803	803	802	800	796	792	790	789	785	781	781	780	776	773	771	769	767	766	764	761	759	757	752	752	749	749	747	747	746	746	742	742	739	739	736	734	734	733	733	731	728	728	727	727	727	727	725	723	723	725	722	720	714	713	713	713	713	716	719	719	719	701	701	701	703	703	703	701	701	701	700	700	700	700	
920	918	915	913	908	906	906	898	891	891	887	885	880	873	871	869	867	864	860	858	856	854	851	849	847	845	845	845	843	839	837	835	835	831	827	827	821	819	819	817	802	802	802	802	803	803	803	803	800	798	794	792	789	787	781	778	778	778	774	773	767	767	766	762	759	757	755	752	750	749	749	747	746	746	742	742	739	738	736	736	734	734	733	731	730	728	727	727	727	727	727	725	723	722	722	722	720	719	711	711	711	711	714	717	719	719	704	701	701	701	701	701	701	701	701	700	698	698	698	700	
918	915	913	910	908	903	901	898	891	891	887	882	880	873	869	869	864	862	858	856	854	849	849	847	845	845	843	843	841	837	837	835	831	829	827	825	819	817	817	817	800	800	802	802	802	802	802	800	798	796	792	789	787	783	780	776	776	774	773	769	766	766	761	759	757	755	754	749	747	747	747	746	746	744	742	739	738	736	734	734	733	733	731	730	728	728	725	725	723	723	725	723	722	720	720	722	720	719	711	711	711	711	714	717	719	704	704	701	700	700	700	701	701	701	700	698	698	698	698	700	
915	913	910	908	908	903	901	898	891	889	885	880	875	871	867	867	862	858	856	854	849	845	845	843	843	843	841	839	839	837	835	833	829	827	823	821	819	817	815	815	798	798	800	802	802	800	800	798	796	794	790	787	783	781	778	776	776	774	769	767	764	761	759	757	755	754	752	749	747	747	746	746	744	742	741	739	738	734	734	734	733	733	731	730	728	727	725	723	722	722	723	722	720	720	720	720	719	714	711	711	711	711	714	716	713	704	703	700	700	700	698	698	698	698	698	697	697	697	697	698	
913	913	910	908	908	903	898	896	891	887	880	875	871	867	867	864	860	858	854	851	849	845	845	843	841	839	839	837	837	835	833	833	829	827	823	821	817	815	813	811	798	798	800	802	802	800	798	798	794	790	789	783	781	780	776	776	774	773	767	766	762	759	757	755	754	752	750	747	747	746	746	744	742	741	739	739	736	734	733	733	731	731	730	728	727	727	723	722	720	720	722	722	720	719	719	719	717	714	711	711	711	711	713	713	704	703	701	698	697	697	697	697	697	697	697	697	696	696	697	698	
910	910	910	908	908	901	898	896	891	887	878	873	869	867	864	862	858	854	851	851	847	845	843	841	839	837	837	835	835	833	831	829	827	823	821	819	815	815	811	809	798	798	798	800	800	800	798	796	792	790	787	781	780	778	776	774	773	769	764	761	759	757	755	754	752	750	749	747	746	746	742	741	741	739	739	736	734	733	731	730	730	728	728	727	725	725	720	719	719	719	720	720	720	719	717	717	716	714	711	711	711	711	713	704	703	701	698	697	697	696	696	697	697	697	696	696	696	696	696	697	
910	910	908	908	906	901	898	896	891	885	873	871	869	864	862	860	856	851	851	849	847	845	843	839	837	835	835	833	831	829	829	827	823	821	819	817	815	813	811	798	798	798	798	800	800	800	798	794	790	789	783	781	778	776	773	773	769	767	762	761	757	755	752	750	750	749	747	744	744	741	739	739	739	738	736	734	733	731	730	728	728	727	727	723	723	723	720	719	717	717	719	719	719	717	717	716	716	714	711	711	711	713	711	703	701	700	698	696	696	696	696	696	696	696	696	694	694	694	694	696	
908	908	906	906	906	901	896	896	889	880	873	869	867	862	862	860	851	851	849	847	845	843	841	837	837	835	833	831	829	827	827	823	821	819	817	813	813	811	807	798	798	800	800	800	798	798	796	790	789	783	780	778	776	774	769	769	767	764	761	757	755	754	752	749	747	747	746	744	742	741	739	739	738	738	736	733	731	730	728	728	727	727	725	723	723	722	720	717	717	717	717	717	717	717	717	716	716	713	713	711	711	713	704	701	700	698	698	696	696	694	694	696	696	694	694	693	693	693	693	694	
906	903	903	903	903	901	896	889	885	880	873	869	862	860	860	856	851	851	847	847	845	843	839	837	835	833	829	829	827	825	825	823	821	819	817	813	811	809	803	800	800	798	798	798	798	796	792	790	785	781	778	776	774	773	769	767	764	762	759	757	754	752	750	749	747	747	746	742	741	739	738	736	736	734	734	733	730	728	728	728	727	725	722	722	722	720	719	717	717	716	716	717	717	716	716	716	714	713	711	711	710	704	701	700	698	697	697	696	696	694	694	694	694	693	693	691	691	691	693	693	
901	901	901	901	901	901	896	885	882	880	871	869	862	858	858	854	851	847	845	845	843	841	839	837	835	831	829	827	825	823	823	821	819	819	815	813	811	807	802	800	800	798	798	798	796	794	789	787	783	780	776	776	773	771	767	766	762	762	757	754	752	752	750	749	747	746	744	741	739	738	736	736	734	733	731	728	728	728	728	728	727	725	722	722	722	720	719	717	717	716	716	716	716	716	716	716	714	711	710	708	707	704	701	700	698	697	697	694	694	694	694	694	693	691	691	691	691	691	691	691	
901	898	898	901	901	901	896	882	882	878	871	862	860	858	854	849	847	845	845	845	843	837	835	833	831	829	827	827	823	821	821	821	819	817	811	807	807	803	800	798	798	798	798	798	796	790	787	785	781	778	776	774	773	771	767	762	761	759	754	754	752	750	749	747	746	744	741	739	739	736	734	734	734	731	730	728	728	727	727	727	725	725	722	722	720	719	717	717	717	716	716	716	716	716	716	716	714	710	708	707	706	703	700	698	697	694	694	693	693	694	694	693	693	691	691	690	690	690	690	690	
901	898	898	898	898	901	896	882	880	878	871	862	860	858	851	847	845	845	843	841	839	835	833	831	829	827	827	823	821	821	821	819	819	813	811	805	805	803	798	796	796	796	798	796	794	790	785	781	780	776	774	773	771	767	764	761	759	757	754	752	750	747	747	746	744	739	738	736	736	734	734	733	733	730	728	728	727	727	727	725	723	723	720	720	719	717	716	716	716	716	716	716	716	716	714	714	713	710	708	707	704	701	698	697	696	694	694	691	691	691	693	691	691	690	690	690	688	688	688	688	
898	898	898	898	898	898	896	882	880	875	869	860	858	856	851	847	845	843	841	841	837	835	829	829	827	827	825	823	821	819	819	815	811	809	807	805	803	798	796	794	794	794	796	794	792	789	785	780	778	774	774	771	769	767	762	761	757	755	752	750	747	746	746	742	741	738	736	734	734	733	733	731	731	730	728	727	727	725	725	723	722	722	720	719	717	717	716	714	714	714	714	714	714	714	714	714	713	710	708	706	704	701	698	696	694	693	693	691	691	691	691	691	691	690	690	687	687	687	687	687	
898	898	898	898	898	898	896	882	878	873	864	860	858	854	849	845	843	841	839	837	835	831	829	827	827	825	825	821	819	817	817	813	809	807	805	803	803	798	794	794	794	794	794	792	790	785	781	778	776	774	773	769	767	764	762	755	755	754	752	750	747	742	741	741	739	736	736	734	733	733	731	730	730	728	728	727	725	723	722	722	720	720	719	717	717	716	716	714	714	713	713	714	714	714	714	714	711	710	708	706	704	701	698	694	693	691	691	690	690	691	691	690	690	688	687	686	686	686	686	687	
898	896	896	896	896	898	896	880	875	871	862	860	856	854	847	843	841	839	837	835	831	829	827	827	825	823	821	819	817	815	813	811	809	805	805	803	798	796	794	794	794	794	794	790	787	783	780	776	774	773	771	767	764	762	757	755	754	752	749	747	744	741	741	739	739	736	734	733	733	733	730	728	728	728	728	725	723	722	722	720	720	719	717	717	717	716	716	714	713	711	711	711	713	713	714	713	710	708	708	706	704	701	698	694	693	691	691	690	690	690	690	690	688	688	686	686	686	686	686	687	
896	896	896	896	896	898	896	878	875	867	860	858	854	851	845	841	839	837	835	833	829	827	825	825	823	823	821	819	817	815	813	811	807	803	803	800	798	796	794	794	794	794	790	787	785	781	778	776	774	771	767	766	762	759	755	755	752	750	747	746	742	739	739	738	736	734	733	733	733	731	730	728	728	727	725	723	722	722	720	720	719	719	717	717	717	717	716	713	713	711	711	711	713	713	713	711	708	707	707	706	704	701	698	694	691	691	690	688	688	690	690	690	688	686	686	686	686	686	686	687	
891	891	894	896	896	896	885	875	873	867	858	854	851	849	843	841	837	835	833	831	829	827	823	823	821	821	819	817	815	813	813	809	805	803	800	798	796	794	794	792	792	794	790	785	783	778	776	774	773	769	766	762	761	757	754	754	750	749	747	746	739	738	738	736	734	734	733	733	731	730	728	727	725	725	723	722	722	720	720	720	717	717	716	716	716	716	714	713	711	710	710	710	711	711	713	710	707	707	707	706	704	703	700	694	691	690	690	688	688	688	687	687	686	686	686	684	684	684	686	688	
